# This PCD file was generated using the MATLAB® pcwrite function
# from Computer Vision Toolbox®.
# .PCD v.7 - Point Cloud Data file format
VERSION .7
FIELDS x y z
SIZE 8 8 8
TYPE F F F
COUNT 1 1 1
WIDTH 853
HEIGHT 1
VIEWPOINT 0 0 0 1 0 0 0
POINTS 853
DATA ascii
-0.241855250177441 0.267639476883075 -0.196576578994677
-0.133215772681897 -0.047105774040528 -0.017206599466584
-0.110220785874724 0.142083734880134 -0.038078064092401
-0.124822672551506 0.054013173895135 0.047206069715681
-0.285032087757017 -0.040954055298293 -0.358085446881030
-0.145857763275287 -0.027921115493269 -0.574533786224765
-0.413165133090344 0.087687274901162 -0.214529426098194
-0.199372950786009 -0.193651154743942 -0.341469873113550
-0.178075783273390 -0.179572187813870 0.263631279846076
-0.106490780350648 -0.480781866420665 -0.071357724946987
-0.084753881089689 -0.006257734205325 0.293816537566151
0.139762340862519 0.037419418010748 -0.041960165434229
-0.256935283286214 0.077454502709547 0.090397301509112
-0.175353769023583 -0.075613331994186 -0.238414088071339
-0.058352865234407 -0.032056702440368 -0.215084520506134
0.070451146909380 -0.282016563306458 -0.183843528890378
0.000474658250202 -0.182490961092457 -0.127947796570682
-0.181131457852847 -0.116930255411021 -0.533731433470974
0.002825186345451 -0.222489561525388 0.198400465332846
-0.146431989436809 0.004146576683408 -0.281777403315273
-0.192552467093217 -0.033723640544612 -0.155062499720275
-0.036727838582360 0.166309968151421 0.373674202143122
-0.325792467916678 -0.188770494670656 -0.386672883752399
0.304285031865212 -0.089676338374593 0.037083918933694
-0.289035773522116 -0.451007257234008 -0.173049766918113
-0.423908553629120 0.117912496430318 0.152494076309820
-0.126735202767951 -0.025013067605101 -0.224193468476123
-0.159471384673617 -0.014485503956783 -0.357645604978062
-0.412197406506203 -0.159606125839391 -0.395431593350906
-0.221760833955819 0.467685547717474 0.005704854447137
0.048555299805279 -0.261472964202281 0.071631810576227
-0.093799133938490 0.019484410265597 -0.011394162354510
-0.035611144126447 0.006328208254833 -0.136300065810719
-0.310764691676006 -0.117320146689825 -0.502756839391450
-0.113207239572804 0.027831746379173 -0.157021679006803
-0.142714104001973 0.208682847988514 -0.521180577248104
-0.280982712959280 -0.305026812340385 0.284249120300379
-0.100960794908132 -0.072153743213125 -0.550551385321884
-0.201311678717103 -0.094066775768820 -0.406476671935851
-0.068924077136658 0.173700788917122 -0.462463013457603
-0.115704728723517 0.098605360658348 -0.485112339359942
-0.103898830152878 0.075570659613861 0.175979556717823
-0.188836854497444 0.076861518423961 -0.225406504786772
-0.110063985766356 0.099915917741367 -0.445726887861742
-0.060877644652912 0.016956325198293 0.137742649603126
0.093266947601918 -0.288531848785438 0.160845754973291
-0.314676896350528 -0.050381492501242 0.339552881317137
0.077052678036299 0.406297625553482 -0.160078418913012
-0.180107532029604 -0.050802623329888 -0.494623041129709
-0.072631622298636 0.080686960846120 -0.262396438048146
-0.147269580077653 0.318910945489034 0.213962573197047
0.211229860227097 0.075598155480006 0.152435972364831
0.000450394580633 0.026131530298024 0.381535519275504
-0.261437350730681 -0.201628894073318 0.209042247337745
-0.120266562738989 0.422495934181913 -0.309399648649247
-0.169090085131057 -0.173058841806043 -0.471911571839091
0.112015911350182 0.109120639225979 -0.421552530334583
-0.316905083206134 0.038470380991647 -0.537670879414652
-0.210877889749180 -0.273854070615888 0.321734665530107
-0.106532317977334 -0.407574732169797 -0.090928527719254
-0.465186636406046 0.217712909439767 0.074917710206382
-0.231539327633534 -0.035529320381699 -0.324256974186932
-0.140774149327054 0.031818886185363 -0.357381279276329
-0.014393892472894 0.094534961169980 -0.383719238918756
-0.115579182639263 0.089578460897593 0.413379106887618
-0.084380568962778 -0.023273303688459 -0.128193093036678
0.080055772572707 -0.060267371983842 -0.023891292652603
-0.298694405976353 0.175305465885858 -0.315618078253723
-0.217552374462218 -0.282440833311261 -0.234037055341469
0.082994625351521 0.128888701218807 0.170228516554674
-0.288781836111929 -0.077573974166850 -0.536447862687774
-0.229422546736554 0.108722050369125 -0.162589442140623
-0.200883023308469 -0.456372409656339 0.005248757797778
0.165629222927456 -0.311426821949656 0.020718668301854
-0.024449762437419 -0.044522274292727 -0.440987996605405
0.069410677504667 0.071863579369914 -0.280918888791999
-0.157003119892119 0.034931260557318 -0.412286428162355
-0.005679778985510 -0.049198480243661 -0.064507526517782
-0.105807164568264 -0.221355980493137 0.055735627090527
-0.424119767969062 -0.249907812798058 0.133274506674441
-0.079753101237437 0.394780023851830 -0.269848791676478
-0.192014245478000 -0.029143323105789 -0.166463973120421
-0.183217285753800 0.228598828888551 0.090635881683336
0.103471287907478 -0.048133960863166 0.270770563556494
0.088268110996098 -0.249929070344428 -0.416297309237605
-0.269264490635780 -0.403137245320602 -0.162856446769742
-0.062937388009769 0.084563770638068 0.201160437181331
-0.325141247330395 -0.137509832459367 -0.475667673142946
-0.024528214558045 -0.456074410181519 0.025955943837669
-0.151209367312117 0.123949748562082 -0.492141410692806
-0.076701522752890 -0.118234077831471 -0.472947635262845
-0.237231976684303 0.374364755466403 0.092548641092658
-0.173728722613921 -0.031295201664675 -0.568104255584535
-0.015334612605461 -0.254190448562657 0.171221981814380
-0.193892255765497 -0.092110078254864 -0.287057337681133
-0.502301527446564 -0.023354102277501 0.013706628900856
-0.332876220913140 -0.144153134957461 -0.189254702601136
-0.147059296829092 -0.009976881572059 0.392505279908473
-0.148614948200565 0.002094776111070 -0.216959216162226
-0.004476597697446 -0.026643261260697 -0.112289449519857
-0.188167125745860 -0.023194981461710 -0.323982355382726
-0.210323601981903 0.266675365824323 0.335631548432322
-0.257892822437964 0.037483335698853 0.077557967973656
-0.144364037502667 0.184418024179484 -0.142210987123559
0.015503888426353 0.287845912312530 0.282115931752618
0.048578304559862 0.104165433086838 -0.257313098712518
-0.079493748527872 -0.057035848226759 -0.018168664303481
-0.271132931939655 0.086208008092792 -0.332748860256257
-0.095084058672908 0.007762027135182 0.214657459441730
-0.373256710998518 0.357755527198658 -0.066408225211648
0.147908465772203 -0.088712104299172 0.028104023720716
-0.195302859848721 0.005914985250900 -0.309155777408664
-0.092378537714885 0.261719148182141 -0.361516152788259
-0.246700742838260 -0.013630102719136 -0.562552733770543
-0.198647178656356 0.284253633247054 0.112801986170738
-0.203607813196153 0.476807568071253 -0.128617858862618
0.121678848138649 0.057188493046678 -0.023169250856458
-0.455447789732551 -0.169678859545707 -0.211268342845918
-0.306425701851553 0.145771329256219 0.321358456088882
0.188037644136352 -0.176013186419696 -0.243365990653007
-0.033288823277969 0.069404822430809 -0.549591670586322
-0.164701848612878 0.125843674113663 -0.468333888345237
0.014558251397890 0.021489253102506 -0.184394045466825
-0.004465684428458 0.129758728570984 -0.178311989087520
-0.167560299371973 0.001402667361802 -0.522126043805557
-0.063335526534426 0.149708129887683 0.018037175699216
-0.284053206783884 0.196190813724421 -0.502538187710858
-0.141260936261376 -0.019247249688552 -0.527200987259849
-0.401172162327185 -0.207392794026580 0.275475520367715
-0.154506308981699 0.001414262823701 0.359829648018528
-0.162440929365402 -0.121886873605528 0.238339026077307
-0.064488665657522 -0.320722967262222 0.228188677586375
0.073507956107707 0.028039416129214 -0.129836812761665
-0.263963141980021 0.348283589913619 0.083244272678462
-0.400319561484044 0.044065893853042 0.215485056526277
-0.199980005064108 0.131936340801342 0.024187450662921
0.111482069301794 0.396552487947052 -0.017610174324641
-0.538195072879563 0.051619160293016 0.167910071511864
-0.218955342874381 -0.277643000878193 -0.323483210651795
-0.283605145847329 -0.213525586890531 -0.266437464598663
-0.086242685056521 -0.015396258166087 0.395253460887709
0.213222936934412 0.049395707485744 -0.214851876603406
-0.135614852316715 -0.026534609451158 0.344020144914621
-0.096663063215488 -0.070071648381764 0.374115476101218
-0.189780112785132 0.062233959666819 0.138450099876968
-0.344560386981851 -0.180389686647251 0.253334965571819
-0.335253631364268 0.283831665991182 -0.235707227668995
-0.158437881522357 -0.011330104454231 -0.287683164767856
-0.548457718524334 0.145352613741291 -0.096184127994265
-0.127011324230558 -0.123937350370802 0.007442762229240
0.027266774312866 0.022796859568077 0.390967890228893
0.056541707915953 0.353530278983426 0.109396645956429
-0.402786031912628 0.333144566070572 -0.157305401951087
0.221590722605597 -0.196396160075842 0.086851068891903
-0.050245153848355 0.048821804682296 0.220308866146636
-0.165321210868079 -0.081254445771119 0.319057525845214
-0.174392752612247 -0.038031909387651 -0.395996151956037
-0.459157024809896 -0.352670956495440 0.041184096048148
-0.154631859889067 0.073894408153968 -0.363061119391206
-0.051437831273316 -0.242969508068733 -0.012138971216924
-0.096769088910953 -0.257010285277828 -0.269318309338191
-0.113570197905853 -0.334458999740677 -0.410265576029195
-0.189114472934366 0.165358115895064 0.116077594788204
-0.209748634605191 -0.199827623031817 -0.388944829293802
0.095735035591636 0.005439133383890 0.321439561484012
-0.207894751858114 0.148535210364295 0.093378273303871
0.015666718325000 0.121596052565960 -0.431373917822162
-0.298119504863324 -0.435834552540273 -0.044487625335058
0.255670997947797 0.005825525470304 -0.142024117684514
-0.184326162130607 0.111654176122854 -0.040774317035715
-0.569497086463022 0.113858567950724 0.106789898091330
-0.150224757472481 0.002735129252042 0.427358659812528
0.198635527059242 -0.158113548733281 -0.373715096724396
-0.096368958485267 0.073665191487765 -0.168544066613489
0.059736720130585 -0.408032331883463 -0.068427515781110
-0.001570442007771 0.024199955460727 0.073578705179744
-0.013332544183277 -0.242074421011371 0.180838618725417
-0.380602526092050 -0.231638254742130 0.287964593036611
0.052250318811771 -0.038119565920456 0.135408655230044
-0.085765535473669 -0.100349873616862 -0.107081943183669
-0.413501104185567 -0.040797735465126 0.182982188266051
-0.105416702354886 0.015664566985823 0.167749678822201
0.181914369429334 -0.060965075186010 0.031602925673967
-0.467935943277349 0.096667534053517 -0.139319081174715
-0.079297405376422 0.175492191307180 -0.084130691066584
0.232322031069844 -0.044387657879833 -0.012808653259595
-0.108432722928180 0.097757877272584 -0.530119045958217
-0.047237621648481 0.242832113901007 -0.467437675390845
0.111056094825126 -0.154063376709416 -0.065163568865386
-0.150993627050899 0.000312066885019 -0.485761321466863
-0.539532724755112 -0.035104043864646 0.005780963787034
-0.258984876507766 0.052327974795417 -0.270569699152394
0.017391021048982 0.096923146272525 0.072839476315192
-0.624781095152188 -0.060720060254963 -0.047130728310782
-0.347292475730427 -0.059503767545684 0.071919779797965
-0.108886295410000 -0.147564179714361 -0.175388074939691
-0.136253413481714 0.182884772786849 0.315980198381649
0.026546042573472 0.085941738051003 -0.155522450885420
0.069611324893256 0.107962274722244 -0.444054381728609
-0.187299349347443 0.049477838576665 -0.449053020522502
-0.102454819436895 0.016515486191909 -0.210712858696749
-0.112520886732255 0.024732065820175 -0.164884220431190
-0.373939786905535 -0.344291743222894 -0.144508817311235
-0.180220401392119 -0.049094459310717 -0.350541163926882
-0.162089313156342 -0.065482602724320 0.194990917020152
-0.119180468157611 -0.014701330931775 -0.193122295024761
-0.152674569112119 -0.013523050005517 0.288194790674418
0.157651263466133 0.293401048147893 -0.298706084509788
0.084715124319275 -0.011225104040344 -0.400315635612375
-0.175584375535006 0.044080747883153 0.051073916203586
0.032408151041825 -0.130095704640202 -0.341231351072314
-0.187185963835314 -0.259374723869457 0.147888370693597
-0.280829765794806 0.137079754390357 0.380161812849143
-0.039933083697810 -0.091874547990577 -0.206575144367728
-0.091323867317463 -0.027003192593539 0.060697038095071
-0.367558547882358 -0.120731806729691 0.291493523561659
-0.121801603662622 -0.028792683478767 -0.343761836852571
-0.005790349367558 -0.025607132095617 -0.047158932630758
-0.170247573462135 0.222974134144721 0.162741004565040
-0.147790460611534 0.048516684503010 0.048938682710502
-0.119060788695353 -0.020506242506441 0.423616242973673
-0.190138765560482 -0.031451831039044 -0.186537348135673
-0.076499327105977 0.009360632122977 -0.047438444491936
-0.106088824769720 -0.480232263395290 -0.083854688615313
-0.322493387963387 -0.194455500383588 0.115334266457909
-0.185093183240126 0.248697790964756 -0.003646523160962
0.001828376282091 0.020174313104238 -0.545163555571499
-0.362925099737041 0.052360470599312 -0.156792487168581
0.092884938707146 0.249689517572918 0.266157026581762
-0.334010330638120 0.114818425458525 -0.490672945219432
-0.175709678104919 -0.034438047323798 -0.562879842563441
-0.254248875705398 0.064839465195129 0.027045849207946
-0.174458622800907 -0.296805174896650 -0.462649232056861
0.074029357326815 -0.165358342903853 0.319002844690708
0.008713105215050 0.131331121778500 -0.419633941878590
0.088073405418958 -0.180572323523628 -0.192274656009329
-0.016257674561870 0.248324082286034 -0.382381379571792
-0.161404401183466 -0.123824734922187 -0.323639806873794
-0.220653726140279 -0.067779464524530 0.411826256423603
-0.107715272917022 0.034463848498548 -0.129634239097099
-0.012153855553527 -0.085746208736068 -0.412090833733028
-0.183051130999601 0.141910389543804 -0.450209132840629
-0.065697614923997 -0.131596515966893 -0.181882416022076
-0.033128792852614 0.055203260288771 0.387911452362680
-0.028581107170244 -0.001625921020364 0.152848302678150
-0.148832682593210 0.028492446003106 -0.340361921885811
-0.240797542257566 0.423362777051124 0.147173990910542
-0.059265968855397 0.161110337817845 0.388559741830720
0.206599820059703 0.298698702950703 -0.195014456608648
-0.191413887750511 0.018089310212065 0.053344589531056
-0.031952317679329 -0.250000794129915 -0.001344915421236
-0.446343148812611 0.065183516372584 0.186077402891611
-0.257519466092404 -0.323564477539083 0.262162765564510
-0.335056899321067 -0.410186955597622 -0.100320995552464
-0.250893506343398 -0.337108105071133 -0.056752806478138
0.074536137252411 0.287226936220309 -0.155070262726749
-0.004860576873085 0.200162169109366 -0.361929566807545
-0.103898479683241 0.045500530341972 -0.123079016687301
-0.095396888237078 0.083942402496924 0.056227750714886
-0.319759081627237 0.152366530384794 -0.461486197390720
-0.323169066685663 0.001766480278100 -0.521646082501574
0.029280753650923 0.019317756483666 0.175042669530234
-0.427189658536453 -0.040799560852456 0.322445462677566
-0.147727363737041 -0.011767514056281 -0.291360975445348
-0.395857613139320 -0.306817498710964 -0.123149960675751
-0.290149752916893 0.132072019390072 0.334341069838105
-0.242967826529498 -0.453406168187480 -0.212324465970196
-0.253405226071141 0.073192974791662 -0.276497950036291
-0.448586181990253 -0.104391311141605 0.152485517690144
0.256085792487041 0.093021028193493 -0.185249161818395
-0.266307454437629 -0.434609753017394 -0.203835220204276
-0.348386575969477 -0.318815147295836 -0.303712519265747
-0.204006241321361 -0.076789590126108 -0.295380976302530
-0.165946820985317 0.060239284607419 -0.099995825783215
-0.379330372318285 0.283022649974174 0.253134842133242
-0.352766791744280 0.078594540320241 0.370946462523293
-0.373420584646587 -0.080620884888398 -0.409076365195420
-0.065532459388779 -0.007449942689495 -0.395049511037379
-0.175047689428086 -0.412565286268377 0.115607417082963
-0.135840502705231 -0.185704898652667 -0.278622954759561
0.000158970400753 -0.041079961110293 0.118910374477796
-0.037885751971827 -0.230212245971176 -0.221998736843832
-0.357674897840760 -0.005997451466385 -0.228423930130550
-0.525483258692018 0.218326920512254 0.104083591416269
-0.592987346766100 0.177487127546553 -0.000623168097588
-0.239634253067189 -0.040026347037350 -0.160946758827955
-0.248524054686978 -0.008935712416408 -0.041627023616976
-0.284536503429208 0.307280043243195 -0.240140917227355
-0.289468327029976 -0.108335284832885 0.058953901563585
-0.146121400930488 -0.439157260815237 -0.179537505851212
0.025196494852029 0.263736685099076 -0.410132030315352
-0.271208077219642 0.026685971773754 -0.405881548065432
-0.248055586090753 0.080859815334303 -0.134204866894520
0.042654362026248 0.183777964081516 -0.088256519646963
-0.088307464257256 -0.040816733836137 -0.130171536675877
-0.048186923100359 -0.101250267107649 -0.499135390623236
-0.117918661948260 -0.163601318391064 0.296881496730454
-0.198494881785272 0.271696871825982 -0.299456071928112
0.123021869520878 0.036290433552981 -0.303392188074763
-0.222112167134191 -0.250628024397490 0.153790248537671
-0.269468601399864 -0.297000572691988 -0.044888966863864
-0.255287548969885 -0.082192762196926 0.398094529208425
-0.585989961132432 0.018730286550789 0.083305896554804
-0.253514594978183 -0.224627948827723 -0.255566203342225
0.121997656820546 -0.106321828043333 -0.129534190902778
-0.119656560259382 -0.016363555532947 -0.571270852303192
-0.039355345015071 -0.188172762723182 0.200962071159165
-0.139350620643403 -0.008923926892786 0.389314741868439
-0.102859513813112 -0.031742228854410 -0.360397942588645
-0.172667291699938 -0.115640950570139 -0.106494195210772
0.131286999462814 -0.126920686369584 -0.116754889719940
-0.274245857592008 0.029563800014307 -0.516945873487032
-0.175619594351450 0.018051579808906 -0.557925811910617
-0.137060460103228 -0.017144953104710 0.398399074810444
-0.084639532865873 -0.174963772771395 -0.251325848882479
-0.269985080342833 -0.300249118970767 0.076454548020040
-0.148835212521728 -0.051692348213243 -0.300290811178667
-0.540232717950771 -0.082672512670334 -0.155839800502970
-0.249999355715891 0.223840657822732 0.276302201496814
-0.137636345934318 0.057406932625372 -0.012828838891005
-0.029501265591896 -0.011561782244486 -0.029967014869939
-0.123762091197060 0.007021020466670 -0.566152393235107
-0.171567277976735 -0.016920306800742 0.173854456894307
0.023129043272561 -0.200547560134091 -0.278435220222358
0.010096072131679 -0.049386662770831 -0.444461328494071
-0.028061071241476 -0.234949473971156 0.001700833308203
-0.062007819745223 0.041804265383703 0.012315308687795
-0.252242359901448 0.064446656396364 -0.551826180520155
-0.020297482702877 0.141371630819639 -0.319593310812097
-0.185387668067628 0.160580580392003 -0.022008021248052
0.104387309994336 -0.113261876736048 -0.007900219855001
-0.208388256831619 -0.042120905178522 -0.077549319615944
-0.321736839415066 0.262128604093312 0.213312415618533
-0.240201612886725 0.100369326296233 0.407267803397683
-0.082291717121027 -0.012608153697110 -0.147406954024817
-0.468881968740798 -0.103312901285782 0.219198557102241
-0.178348061599231 -0.098079632388797 -0.138426910201097
-0.150597346991084 -0.005771597649814 0.141017900567008
-0.139929277812128 0.086264790706238 0.018203952771892
0.060815498104745 0.177913239329554 -0.479814928373103
-0.408099671378387 -0.000129874233665 0.138075526306685
-0.241740356178012 0.278122054063000 -0.443387572940322
-0.062370657697525 0.149278518417352 -0.306288059030957
-0.149935112911812 -0.110921337686291 -0.137551467029317
-0.195754518857187 -0.073285874352353 -0.149361458370925
-0.127099456632659 -0.108672537380966 0.075979654107445
0.036434614212770 -0.049229296209433 0.349104129191293
-0.163126621323519 -0.004066742395859 0.180185518717265
0.040211275588438 -0.010766381503932 -0.275699299211021
-0.461621058952350 0.020896786213789 -0.127750014829877
-0.156877795732376 0.009298476671452 -0.312990159110308
-0.199632627957168 -0.087311057087329 -0.346211666323593
-0.130535966375954 -0.127868028523155 -0.459290226558732
-0.556792278094281 0.049683097310062 -0.322854430320905
-0.189493846423152 -0.332761918685492 0.068609218082881
-0.155765380351091 0.138029031284652 -0.126086812385773
-0.128255068977379 0.025573721331520 0.143607692992437
-0.343601932422741 0.071865661230834 -0.395030371850223
-0.214100535747163 -0.060559060023722 -0.274988792870667
-0.022196432617007 -0.161257750167183 -0.266187888477419
-0.072411909858772 0.066280459055797 0.392553439208102
-0.226335206733069 -0.004495733353097 -0.292213753708937
-0.128978165481759 -0.037524903783828 0.426619992795775
-0.251868470282596 0.160325878304757 0.300864037001192
0.041715965255690 0.049990540138344 -0.183330144139107
-0.092018786403400 -0.094811000995023 0.412815799927610
0.070980750121563 -0.024845487188586 -0.388224645198036
-0.064937691757492 -0.054183694996933 0.379981618684756
-0.185771423591169 0.078321477395038 0.041407977426712
-0.060043716059857 0.039038571682547 0.274352724731922
-0.120812232889946 -0.160004350285255 -0.411974956415890
-0.234418848216239 0.162322285821750 0.063842853877789
-0.527989604323841 0.124766680590335 -0.089480487914473
-0.399739254889331 -0.355053456644052 0.080009712603969
-0.170647807998055 -0.070946838794451 -0.089522849795494
-0.173786782060689 0.034410846358838 0.046641597109675
0.068489988166792 0.170852904109717 -0.226626799752696
-0.153163860451384 -0.007247092571742 -0.566502392576632
-0.242539171679313 0.114773539393678 0.398411550009195
0.062212476804859 0.243777080082689 -0.282427103620310
0.134578588107065 0.256122276313245 0.139319561409859
0.197075209373810 0.298476726840997 -0.191592933800347
-0.337548832669227 0.110124240049145 -0.265761376401936
-0.008466079851737 0.109968585442172 -0.023740354898947
-0.628178845148608 0.062086329703579 -0.083390142101923
-0.442021148585416 0.173067993851601 -0.096941890875427
-0.518825246414008 0.123975385219628 -0.359202877728255
-0.180258569349811 -0.156494639378980 -0.126016293719987
-0.264447562382075 -0.017511138166981 -0.146538174084610
-0.009645575997547 0.197154805353090 -0.187780578494819
-0.009099622287957 0.192063674708217 -0.389523232920048
-0.193969207060736 -0.345068474039390 0.269697266768003
-0.241203122938982 -0.022314567157270 -0.068543725531823
0.089407748558514 0.346174130197190 -0.099174709679102
-0.562546868666923 0.007542941983962 -0.144627916741088
-0.580396673624495 0.171767547275093 -0.195318119719903
-0.108830811281826 -0.273981669582888 -0.075028910503139
-0.321309718666072 0.031685752806064 -0.147644692367755
-0.024366527100889 -0.098031091986319 -0.216836637601875
0.016247013792251 0.153925493741920 -0.467471029548525
-0.239779912667404 0.105139096643581 0.374030345081140
-0.153559024108576 -0.167039293873064 -0.016667089959563
-0.211764143009437 0.088176367068625 0.235310489232841
-0.131086935928690 0.160050101635034 -0.419354991806588
-0.123137792866342 -0.097077891337250 -0.492233324261062
-0.135917744967837 -0.017848775319580 -0.423709405048395
-0.019319985823057 0.240456266858779 -0.251313381745994
0.232599958057129 -0.285658612227251 -0.082546856057346
0.014300383886179 0.307975984529681 -0.219274294799644
-0.153147885577024 -0.128052926143442 -0.181997759394122
-0.171626052007679 -0.068245977273920 0.070826918367763
-0.015786532874436 0.031417569989421 -0.523520836590374
-0.162146412979494 -0.003772943602839 0.181335249009004
-0.143814984397141 0.124672960244925 -0.074842426590744
-0.071094255172166 0.046840497453091 -0.526480396234277
-0.258405349757845 -0.106154094939285 0.296095410712051
0.184882314671943 0.220167725919573 -0.062414999792923
0.066119571564366 -0.170310482947442 0.196616523884990
-0.272346209054668 -0.058603883290677 0.019171653064114
0.093550671742945 -0.296448642475423 -0.321286583165977
0.023685080858573 0.194056399749249 -0.359297848390340
0.001195491207588 0.355917188825204 -0.302042477188576
-0.198569803575809 -0.023441551167635 0.263408808793646
-0.524785385592132 0.084189731476985 0.227837968282249
-0.252367319549649 0.002519819315834 -0.163418992722556
-0.494712069684719 -0.248550660257555 0.058565864444803
-0.281200534787352 0.041786383938677 0.344925368484970
-0.281391464457267 -0.372337080088917 -0.056790325776877
-0.203236504072585 -0.012326582504909 -0.390895292326703
-0.444227915071932 0.237498676979887 -0.140805776448313
-0.350193623340767 -0.138043187912593 0.350662951305585
-0.275573379878467 0.287749234683111 -0.293206611615294
-0.006873091384934 -0.358649544218681 -0.345466176819354
-0.151356448622614 -0.045353441473862 -0.437707714256064
-0.282359584771198 0.262153275607512 -0.115256496903416
0.019885205928155 -0.174426001439140 -0.270815591981218
-0.146247235652356 0.004549090261062 -0.555732004483571
-0.101140507666420 -0.358250255801808 -0.386041096162979
-0.107359302545858 -0.000731340386809 0.190650787927021
0.086992453894749 0.170994420788481 -0.281791840727159
-0.029901810480944 -0.270719968953273 0.035503846416297
-0.454241341655712 -0.097884375472774 -0.413136654899154
-0.146822703053990 -0.034485717289974 -0.565747871784190
-0.083195072426059 0.015298914131684 -0.268326905373356
-0.247336992205451 0.112786367950498 -0.240250559275701
-0.278375438982051 -0.269343969894023 0.306764551009170
-0.156597444265845 -0.000749755598605 0.034029514278478
-0.384329046652462 0.064211418460177 0.104101937838026
-0.528860672257866 -0.128237451225198 -0.181477407013789
-0.145225282233870 -0.044200813514301 0.389543841283476
-0.294161132627463 -0.062762077383276 -0.235693938247735
-0.109255700746586 -0.004835134457295 -0.165564517086604
-0.073075453862173 -0.025415921700032 -0.287915559453382
-0.369834619542828 -0.205286904226734 -0.205270919983250
0.213172963340572 0.277947185778152 0.074389313794994
-0.216905511919922 -0.203729530556752 -0.298154486676718
-0.125459475760786 -0.110597704904112 0.387142759688156
0.100598379155382 0.164910345257787 -0.121638918270312
-0.234996432461059 0.014659447503617 0.024066959297288
-0.144300581384570 0.445615297645290 0.111357595312165
-0.164976629042880 0.146121083674291 -0.134679595249763
-0.273906604074469 -0.215345322115667 -0.319890175540322
-0.058683560734761 -0.068890229973974 -0.115027299486529
-0.037439790862680 0.237743947518977 -0.128129870584203
-0.353532637070446 0.120497137400380 -0.495778012632332
0.194171841731413 0.134794179540862 -0.100443136618109
-0.397465581364627 -0.260220855306485 -0.221937659946975
-0.250492627069038 -0.022959322639549 -0.401128202142611
0.124492738386082 -0.376123745601761 -0.192762498066849
-0.121293202208107 0.133069411246832 -0.486536370806200
-0.484676667929218 -0.009484495027053 0.118544238170875
-0.150760846115548 0.184534606787093 -0.233664333230279
-0.136098722963000 -0.052575346399539 0.201179416116229
-0.148998131484337 0.001473418016096 0.256343388843111
-0.376552617624029 0.027913855260362 -0.210509831469064
0.064766218479681 0.046096668248571 -0.470723079369100
-0.183841040212873 0.136339008566145 0.135936147535643
-0.252216819510895 0.090421758990214 -0.183877093290941
-0.239481771022999 -0.029822334742493 -0.502526698072848
0.034419869003119 0.216882721568727 -0.473133798579237
0.021687648061825 0.045719704574392 -0.047579658947240
-0.109153935783600 -0.086932627564244 -0.155022632147110
0.031096938436087 0.124765744991572 -0.398443169772302
-0.160686861166329 0.023706168692800 0.226716784684517
-0.225718714995627 0.060562913379009 0.418796591380734
-0.172091364644842 0.051707855567064 -0.167614344878512
-0.106204227154692 -0.216216627371062 -0.258111616233258
-0.045275042121251 0.118436960967694 -0.013861876616487
-0.170154264972237 0.033109991603201 0.129477948707247
0.030894643501640 -0.079336729758443 0.354812413492747
-0.414046772870355 -0.024418438290356 -0.387837691950785
-0.153047319661475 0.003155124885015 0.048939806560651
-0.151210759764163 -0.029426391837086 -0.309188298418355
-0.185709554018898 -0.063021976470125 -0.572573492096359
-0.038088319329548 0.001715008491907 0.386588119935489
-0.094549170176126 0.042347600153682 -0.549242717626264
-0.124451086205027 -0.229745510384920 -0.101204524067654
-0.388704856343918 0.047158572593253 -0.454049502701305
-0.194994785990992 -0.009525451292586 -0.323517429657953
-0.148437707163989 0.071870810572188 -0.154694624043373
-0.121970475129794 -0.022871361891201 0.136858781165324
0.005745239075372 -0.302353454882076 -0.030563606576296
0.110600956387671 0.215974799643128 -0.230363776196748
-0.154014134409366 -0.248142599981532 0.252693625896938
-0.273774114336967 0.096658192124897 0.295782284844449
0.031285009278615 -0.355305800678141 -0.267595226959957
-0.140676739544579 0.051601700381621 -0.278119767108736
-0.066163911766904 -0.226845742380548 0.070727162177692
0.008335285206134 0.066043212467587 -0.226269252162728
-0.592967489087799 -0.112449410261874 -0.208454173329799
-0.180141783776244 -0.008876988920354 -0.379891055281283
-0.121846180939134 -0.033478371323222 -0.183595360496819
-0.213181245260516 -0.028351425529398 0.416238575132227
-0.113830810446871 -0.091458934945898 -0.510482240783927
-0.151652413558974 0.001470586809419 0.064828921489662
-0.171975117694533 0.075954265565631 -0.323270279546977
0.175181022810272 0.174859585881308 -0.285277765664713
-0.194743739833236 0.122425680647311 0.407848400969246
-0.444128433604629 -0.121374488024304 -0.427594485230236
-0.147810936723525 -0.002117632598458 0.028597553169688
-0.358353546326348 -0.314190396856255 -0.297809197702493
0.027409334339557 0.389869142472558 -0.161144092506612
-0.082574572209678 -0.019960926781278 -0.482223164311559
-0.177981636967555 -0.036285408670932 0.420614238481117
-0.557321338968125 0.194794104317376 -0.247308738380230
-0.242273096547965 -0.183955377736393 -0.233790648524673
-0.420360019988457 0.011983652954228 -0.156571951357291
-0.139861019488979 -0.097740883464413 -0.360800952232011
-0.322320352637949 0.056877781632547 -0.301124596451866
0.145081831683403 0.310624000474036 0.136370644049990
-0.086400839609114 0.071802840431849 -0.080782191777906
-0.360155654754837 0.143205864771526 -0.389182678369687
0.235366427981191 0.223793931621675 0.048208703033365
0.226210633392277 0.185952453969916 0.123850464460769
-0.123066467202464 0.009190951790845 -0.575637306499548
-0.303556941515463 0.014342552582551 0.205655439587951
-0.265137919263945 0.018697247045825 -0.543948892237447
0.089528372226963 0.313276767261847 0.068601572154269
-0.026895190318731 -0.025491437088419 -0.501944094028170
-0.613221578258019 0.052790917094153 -0.049933869815384
-0.103018456888711 -0.089420712846333 -0.544533733903777
-0.481995293290226 -0.106701717163182 0.179251147828867
-0.272406577339894 -0.060656257239009 -0.424072711619562
-0.546491747190125 -0.167427583334373 -0.068856392702463
0.012487778073936 -0.027424012848500 -0.385674246376457
-0.110075206367004 0.054927687179495 -0.049678905423855
-0.091666569704468 0.110886135509246 0.184769815384583
-0.192292276409306 0.068553270945264 0.147302999449341
-0.227896601830169 -0.174390622915606 -0.365135945649120
-0.155532747314045 -0.452723311993796 -0.160480952617774
-0.114228240237931 -0.121763258215719 0.409766200352383
-0.000117248407385 -0.005997577331728 -0.484866325497695
-0.104191993002485 0.386913541974363 -0.362943152698660
-0.153181800000760 0.001779657011499 0.372893491793724
0.297627744782499 0.165178466234097 -0.044417894588955
-0.154611701488063 0.017218061736113 -0.203654365510711
-0.554697248619292 0.071584247108187 -0.116561144808578
-0.460233092554406 -0.132291265718621 -0.410413533585242
-0.053028588558203 -0.127375207437493 -0.176901110022467
-0.213651850820189 0.040926461788880 -0.062680557988302
-0.255479325288369 0.030608418969973 0.415495014198483
0.293972773936361 0.058585460848417 -0.170650546155699
-0.409457499674982 -0.165791946012233 -0.025093905798093
-0.036123788081579 0.028571074317281 0.413307691096939
0.147210310422761 0.012809669849176 0.310730328150460
-0.433896410162190 0.309587130648630 -0.291758839407754
-0.423946822033966 -0.061704140986502 0.083702826913402
-0.073238229642974 -0.074038800344422 0.412277893790176
0.074764549934988 0.016034295445547 -0.161117423736945
-0.101957318223470 0.017359337107465 -0.160073390273803
-0.199410601147366 -0.172822542673645 0.082641352841162
-0.159034722508471 0.012689906790222 -0.205264668129541
-0.307819757536095 0.049361731843165 -0.367173453570710
-0.125246716718370 -0.008766592177666 -0.572469049123903
-0.071537311525916 -0.049730566164405 0.087519758586336
-0.310577309460239 -0.418806719075580 -0.055197141915190
-0.147715548914033 -0.020059395425792 -0.567900367486968
-0.296572242537606 -0.275568495384425 -0.204734299158533
-0.144195077572522 -0.011716048544774 -0.544339072966749
0.023837115101143 -0.368496526407001 -0.072226870358139
-0.294175538040245 0.078444862238333 -0.399686795296631
0.005946855419051 0.013167391837086 -0.536516061191611
-0.083718905085848 -0.093168664967370 -0.452289106230681
-0.015609043100403 0.047185276864011 -0.445495787789362
-0.481040606312323 0.323880527099060 -0.093750148516666
-0.238165959014196 0.012647757812899 0.202908058233212
-0.046739574005218 0.028280143749539 0.367206940146569
0.237285060410501 -0.095286876935554 -0.346310051676081
-0.183814136044590 -0.074877990423763 0.028520349329951
-0.178672745409890 0.283069804537009 -0.372226533682754
-0.128190030103061 -0.293281095056087 -0.230277156935379
-0.214405834356497 0.444781079940546 -0.026835738505896
-0.348402287891778 0.394357779539102 0.019231578354890
-0.087762079254902 -0.070766746573348 0.084250539727232
-0.123666227840858 -0.072261314824038 -0.192136095352803
-0.209564520181337 0.082806375637039 -0.548998869349762
-0.141094765772883 0.395369449063357 0.112662631751728
-0.295130404843452 0.265234562790783 0.231578294234727
-0.043176380086112 -0.143337033819889 -0.248061765814991
-0.236675521516507 -0.330885476940510 -0.403826242315945
-0.403906297369659 0.377668536243468 0.092639706698728
-0.118586135814215 -0.086795475679616 -0.562852202463828
-0.078411773910510 -0.052263031535714 0.397355168954152
-0.021220641467563 0.426403769430917 -0.052276695848571
0.199137001844138 0.202099664470500 0.108689520875468
0.050513971131212 -0.240817534166603 -0.273868280511348
-0.325360418432602 -0.161484243887070 -0.325192782765840
0.230214794819431 0.080901445448651 -0.360614978758675
-0.177102135955475 -0.034161962399082 -0.171695694473852
-0.200335026133766 -0.078971655268488 -0.282333968413967
-0.376287172703442 -0.071902278375827 0.306106675094485
-0.114916602943174 -0.352419689425950 0.170292663732315
-0.038740988318071 0.032584039004575 0.199052175844313
-0.178303463184667 0.072751169504863 0.219611438145471
-0.009607794079155 -0.025914091966835 -0.256169105928533
-0.170470262975529 0.036701888808565 0.402700511064445
-0.147737617446118 0.018435261238213 -0.232603041254170
-0.433454391852297 -0.046874560953347 0.244195895022377
-0.197647502762905 0.085714052358452 0.385569870440097
-0.197825108046888 -0.127173419415054 0.114154545590161
-0.050200569008480 -0.110544983144994 -0.115423915594207
-0.042752865681837 0.111730440691045 -0.495312267429980
-0.293254420676599 -0.128197199975169 0.029867901225912
-0.129099683603928 0.361677196345528 -0.157783516608785
-0.232887780166026 -0.036899208489714 -0.056542262524814
-0.146339785156365 0.026490451172828 0.412983358578784
-0.396179476237679 0.006141697443729 -0.411294015226818
-0.351958252388776 0.359205035112529 -0.314504252181325
0.083859385237542 0.298950297284191 0.234257910347034
-0.336910544710957 -0.156910295804413 -0.064533013914495
-0.155394182099379 -0.001510820920158 -0.509122940903482
0.228925873477908 0.169295385258397 -0.323549258203071
-0.618836388758846 -0.032008954626680 -0.042276752591681
-0.105803735991640 -0.214351091527030 -0.431164846185541
-0.031472645894712 0.185271553180367 0.014145228724456
-0.260690729193590 0.421341806765898 -0.283828453880215
-0.439244132701508 0.105675743856984 0.100842974157441
-0.483817369205893 -0.074682357610888 -0.230208797865124
-0.193194602093887 -0.234216653191167 0.112579366106418
-0.205876220569381 -0.041227133729725 -0.175852621604964
-0.605316419974775 -0.156820596232786 -0.110365941472717
-0.174629224669867 -0.053927872244297 -0.180477054196254
-0.298545277125852 -0.058891150922742 -0.264897959808927
0.003585918941959 0.445454798193969 -0.129922211994041
-0.074437354810893 -0.139690761876066 0.399500196697631
-0.119876316089018 0.014181115246912 0.103134693615883
-0.101848352001065 -0.003621024379208 0.023967989793777
-0.134577161347249 0.000081877201883 0.407168954282320
0.225009705413891 0.133797128514852 0.166998723582601
-0.148108539906901 0.009990179933382 0.165633054711742
-0.179354452954418 0.037457352536151 0.073170571839837
-0.003346136028080 0.157225520169071 -0.214466565463467
-0.211861889032010 -0.029080057786475 -0.032080131521933
-0.153802330617806 -0.007428843608247 -0.181779372224836
-0.153383751867970 0.067655591397053 -0.108390356198059
-0.306446826375147 -0.042416052640827 -0.239146554689652
0.161072793048494 -0.138921641752757 -0.009568781963206
0.047974814349833 0.223918707882134 -0.413546929869818
0.294581752146518 -0.123460901889763 -0.073502841458808
-0.301480779834915 0.204165932168840 -0.479999007762858
-0.271268989399238 -0.295123871250169 0.245133482022566
-0.032380532881303 -0.102886783297111 -0.189306935640880
-0.355949516488869 0.034379345082697 0.106946561915848
-0.193120373938185 -0.017986082542177 -0.246137140920551
-0.050499369065870 -0.002627316327743 -0.324088909815269
-0.146175979053740 -0.000506055047884 0.375708217873018
-0.072829850658681 0.099430215081528 0.267499689238084
-0.055200785642424 0.095014991194679 0.117851263626888
-0.154490318205502 0.001885074782404 -0.338426280836464
0.176630044993192 0.203536478534635 0.226807424086477
-0.246917272315038 -0.047106852534526 0.383761743663796
-0.281870664019763 -0.051331303489585 -0.535470879792465
-0.058800908999225 -0.470858088192646 -0.054860439401850
0.243029481582405 -0.084067761318785 0.200173269515765
-0.155917680076389 -0.101731627195803 0.152745595973183
0.000916825297614 -0.067919512307281 -0.531197066421344
-0.177721661969446 -0.458208594387523 0.068332298318019
-0.166152842279206 0.022531510631814 -0.403770508053385
-0.163447419024679 0.004561895209158 -0.575493570872113
-0.066511715135285 -0.042003118858815 0.378690696694116
-0.301107578024263 0.247033479688344 0.182576070869584
-0.126286632411851 -0.301442663492408 -0.419538446624487
-0.156958060568785 0.196319133579180 0.375096577888345
0.130225677281814 -0.148929191860033 -0.062230698574950
-0.092213430784945 -0.082992592884329 -0.207449171317502
-0.247755100000839 0.397975149888448 0.013798125060291
-0.021168133796804 -0.258938770569292 -0.186782372920471
-0.177805372383539 0.161100971705368 0.015885761740564
0.023531730057630 -0.395400903674465 -0.086042162919880
-0.403044627450035 -0.123387401138702 -0.179708021864155
-0.077165455656151 -0.149966153925086 -0.016265605785827
-0.163842405513890 0.188079040381494 -0.036413171457453
-0.275954444316134 0.028906635959331 0.235051267129333
-0.414224533237641 -0.021179903146081 -0.088266678024825
-0.354593358150404 0.392236326260293 -0.250765807766825
-0.244367136416470 -0.207633280846268 0.290153596007320
-0.272677972364179 0.033344062327760 -0.187283507305085
0.038532956616406 0.263464053301972 0.134135732493006
-0.244339424398744 -0.088044435797824 -0.550817885668234
-0.521136567230782 -0.158779912331612 0.172644333232032
-0.428057574350629 0.039330769047799 -0.310036010847300
-0.100311544946187 0.057843791898204 -0.232582840364023
-0.419623770945325 0.375453743666135 0.021553011057593
-0.117155346107968 0.017742636480907 -0.144344788684605
0.065097079053966 -0.001681788497466 0.171618428814912
-0.082220745233335 0.005244762739464 -0.567592807111843
-0.283558638508239 0.004051483620874 -0.545535337904874
-0.061874839500118 -0.135345211668611 0.176729150210618
-0.312435051805691 -0.033579268971328 -0.521428409955405
-0.213267054527944 -0.382669933996678 -0.119187255104984
-0.357492597382657 0.196126702286465 -0.178901973832685
-0.167672262059215 0.204092168032306 0.021386586413112
-0.256300288773559 -0.270581474154414 0.015351245783458
-0.381454762729593 0.165620881235621 0.184635736776940
-0.105810126049745 -0.080787289266920 0.151313653590252
-0.277314825556127 -0.060572703040769 0.044647639401869
-0.309498182323640 -0.045923017798863 0.103685048436365
-0.165187082051068 0.208703839617200 0.094702733355065
-0.249962729499304 0.289374619069879 -0.198693242674139
0.021813936673169 0.233864765442148 0.067843882308891
-0.052831427678254 0.004307971748319 -0.205740071668505
-0.352770856796487 -0.152833828770415 -0.296496233889800
-0.166650123941730 0.165586043959856 -0.540359533249842
-0.146117165669759 -0.031437680271311 0.098485451312817
-0.276645386443630 -0.041024779805968 -0.552351342977020
-0.243683929989868 -0.000744300542807 -0.560427464184888
-0.318431163739981 0.108747966112287 -0.181245562302665
0.013313606509034 -0.035523168145742 0.286540794378043
0.014505646681476 -0.167747896894304 0.002121192419612
-0.118452677368057 0.002407760247302 -0.276449834795360
0.070275036209757 0.356169881790163 0.171516700869319
-0.037555798359930 0.170880735258738 -0.228606601636960
-0.194804322725171 -0.081522126351348 0.201124407987588
-0.162343857389596 0.043949851594115 0.037630822660846
-0.550298125471347 0.110480230165897 0.144770463687873
-0.164644416652791 0.012164556405593 0.419755130096834
-0.271825115340470 -0.033345224791113 -0.046138343711987
-0.336389474593222 0.159940505699989 0.042760918025729
-0.167996393417008 0.050874855527693 0.373469136587806
0.056360703692205 0.178800276993425 -0.400189356133009
-0.393918304033282 -0.361022156495020 0.036329905634579
-0.123051320790505 0.063362890394108 -0.202458750057652
0.009290237930382 -0.231810321641686 -0.092061772070556
-0.161412563442188 0.038401381652415 0.351095365647043
-0.109175758145350 0.460969818246757 0.064345450918439
-0.198377172520302 -0.059487184308645 0.405350055712330
-0.319585797737546 0.343744800538997 0.044160348726403
0.124423647234067 0.246490221071634 0.200599601938714
-0.086468133827282 0.060649681618323 -0.521384954231847
0.167981578535291 -0.155711413642934 -0.278352794396376
-0.249701909766160 -0.160787710585144 -0.319453340969932
-0.109341384388470 -0.010291746066118 0.287066556597386
0.184562385910682 0.024087074673260 -0.148874377965351
-0.142193283313199 0.097821044562483 -0.043135924536517
-0.107521881826081 -0.072587910302616 0.168349296907236
0.100480317278417 -0.405909139129988 -0.093506636115976
-0.177695524097113 0.027924608291481 -0.164451201772366
-0.072264170794559 -0.084284749030735 -0.203766689114670
-0.122639763767977 -0.010065137190870 -0.379517727714957
-0.019741807307263 0.033127154446707 0.125918954927354
-0.059240727250334 -0.429480502219310 0.116685120795076
0.082508724881120 0.127321477352058 -0.185633667869402
-0.140809065998939 -0.176727280586524 -0.063492660684151
-0.120426048141690 0.048715256784507 -0.149789018242627
-0.072870144192789 -0.025634510078498 -0.553262794559169
-0.297486485748898 -0.337418867494037 0.091186216844643
-0.154360321985396 -0.005692787636039 -0.324190075808764
0.194756481047416 0.228109426794039 0.182201312441777
-0.095540796081373 0.100511021616173 0.412445187187521
-0.534956120640501 -0.067496770996033 -0.215542130601294
-0.348042178778716 -0.078754812002653 0.003953168786515
-0.202135127417724 0.069808416489464 0.010232637152840
-0.080727435774405 -0.169435234607516 -0.532501195277411
-0.219739321149723 0.044428724717494 -0.358314477700930
-0.052744715811762 -0.129960303808602 -0.484280301642934
-0.210312820924702 -0.135481575338022 -0.164992850950823
0.034731560240371 -0.364054567977548 -0.176281873149304
-0.050054581204490 -0.335613322000580 -0.171031202929376
0.112360644253839 -0.278435269981744 0.139022598585025
-0.183144671823333 -0.139011081056426 -0.459036271750958
-0.213978379617799 -0.305905894119018 0.244016994457785
-0.146443062285048 -0.027554501903944 0.376874003019027
0.006019752207776 0.145001971756423 -0.438945449957995
-0.234499043554207 -0.171359386520954 -0.519529273323176
-0.149372702596056 -0.039485436298929 -0.179027015197305
-0.414934398958953 0.040058255632987 0.258850113234514
-0.170946539884702 -0.145670028074990 -0.443370892492970
-0.506420863376718 0.084057780571328 0.078816390488808
-0.153430755207042 0.201117993462401 0.297898082853466
-0.486523350948397 0.252662438996923 -0.109635136053457
0.066567684931028 0.092851409417120 -0.071412208080471
0.092479672510458 -0.137604833743930 0.254246569770836
-0.163418041196364 0.203291244113192 0.338295808053633
-0.106388964000980 0.041264372689002 -0.548013970841350
-0.012012954356753 -0.160746829305429 0.062338050610821
0.107733087310433 0.358355328471499 -0.073023882130575
-0.178387841211787 0.104028441796210 0.236411516113058
-0.137744349183814 -0.217764175688025 -0.438044410546969
-0.157275424586523 0.191631337667865 0.010778388418527
0.015641377646973 0.031524313981617 0.165905450455265
-0.149933145292350 0.007850963604825 0.352324932133301
-0.282979215269005 -0.164792081915509 0.206558269079774
0.095517597907747 -0.179908870699162 0.185833262994932
-0.476751618988625 0.095092203362532 -0.013090669713563
-0.254532644261378 0.123507636066524 0.197277582433497
-0.174590500722392 -0.009889937158367 0.291107691519912
-0.033259640455741 -0.149941804473619 -0.230385691665412
0.060938024384374 -0.038453198919534 0.259483234629271
-0.136555943003434 0.037416574628126 0.282184735068434
-0.468586683294846 0.193457759355609 -0.005836940704786
0.204628585104237 0.150742940481611 0.066201349769999
-0.038633615062604 -0.082860465165887 -0.198495256863714
-0.069862550693492 -0.426209485465568 -0.285477675051681
-0.332133867077075 -0.025107191438992 0.070618063158044
-0.049298248656248 -0.123345998426664 0.398734308054356
-0.202967234953929 0.065802930959274 -0.438348557461797
0.063296535940228 -0.152620177087041 -0.279738470049722
-0.147936974702961 0.005039008376274 0.160570712810909
0.329770688270051 -0.008102872524349 -0.113776972509511
-0.292028874058697 -0.211835508827627 -0.209300637069908
-0.126700663244146 -0.307605098236386 -0.373745200103720
-0.095847505431956 0.365018076500685 0.042171028476200
0.237374891579989 0.063224610539112 -0.063718017471928
-0.345959394974183 0.410348721414608 -0.198862274352971
0.089780669854005 -0.313405090285089 -0.331235663108557
-0.134263556844687 -0.012931350106428 0.003695124070423
0.042745716150654 -0.146044249849925 -0.363534869586646
-0.421269033443468 0.197896006807202 -0.236606002832166
-0.483707001520209 0.143603180142363 0.253970823409706
-0.391668130847315 0.062436006819692 -0.294332407209835
0.067030718798743 -0.173469127482655 -0.352875437834986
-0.077931483838008 0.186550276012577 -0.225705278234306
-0.199992313565280 -0.222043363478832 -0.331742756577867
-0.018566311363558 -0.431543180708867 0.088140982908904
-0.434130391521297 -0.169614973035143 0.213909839169908
-0.088322840516094 -0.079710991918519 -0.001111043000307
-0.467979469565819 -0.236870502100131 0.137698183517969
-0.166247791172025 0.076858382338749 -0.081764354966892
-0.054457526408531 0.099173682122306 0.404597044746068
-0.202978560425013 0.033400042063346 -0.281362258512381
-0.271004837052107 0.014822419743020 0.322376213217452
-0.121767605881343 0.002196562457989 0.096879972921973
0.085064623792530 -0.169875091178234 -0.322914402516543
0.186065297484767 -0.053439367364525 -0.408308280470061
-0.021069643711501 -0.241075839327534 0.317255475502131
0.198325611527945 -0.219293483341787 -0.312947772129313
0.133656774106726 -0.316291774803012 -0.217802574743665
0.105483299469180 0.011347441311061 0.247375728969719
-0.135598008684606 0.044789904588827 -0.331047377535852
-0.230267912780445 -0.004506159744379 0.413103507055757
0.041565086218593 -0.067602853452180 0.276638388081234
-0.140414262178599 0.430821562197140 -0.018346644405580
-0.161579189543023 0.076184002672689 0.353045587506996
