# This PCD file was generated using the MATLAB® pcwrite function
# from Computer Vision Toolbox®.
# .PCD v.7 - Point Cloud Data file format
VERSION .7
FIELDS x y z
SIZE 8 8 8
TYPE F F F
COUNT 1 1 1
WIDTH 863
HEIGHT 1
VIEWPOINT 0 0 0 1 0 0 0
POINTS 863
DATA ascii
-0.176986418565487 0.013290149230009 -0.047589856189615
-0.058281933321171 -0.171332511445150 -0.028860352308430
-0.294810652589445 0.316444464139383 -0.317763612921228
0.741120055387307 0.389087703255841 0.224009153511168
-0.133205030297856 0.081640753206509 -0.104603153759851
-0.257266250716532 0.034706278495245 0.364841641671333
0.447199567228816 0.192946479176924 -0.306932129013092
-0.298491397277993 -0.659549405335961 0.464136155835781
-0.162239228850503 0.112552061299163 0.546158108585918
0.351507720537832 0.233692318654459 -0.276020288271023
-0.480094084881728 0.446207981457539 0.246430059039090
0.257366082696979 -0.119757385014647 0.362678390781456
0.474319823795695 -0.475880862218510 0.529413939882054
-0.625067943244428 -0.282637425450502 0.195517158631733
-0.467203852420456 0.387682036624474 0.576141406596300
-0.025103422375934 -0.542218347032277 0.679712692600406
-0.275360980619947 0.030606333947908 0.734286611798472
0.085298294583342 0.144023139218210 0.253331759860120
-0.080132704027657 0.159700662930550 -0.032615067027087
-0.090321331595174 -0.220801377248737 0.656732928262382
-0.277633388883429 -0.422737075958929 0.503648240626201
0.035728709950613 -0.600243662041472 -0.208345983888654
0.818647853998628 0.071748256173730 -0.044366110362417
0.086659772242123 0.123796726525087 -0.013470074477340
0.105964163882312 0.106169552711385 0.043467388812354
-0.187850773581110 0.124498939705997 0.132573884243076
0.097350330850536 0.117270952414375 0.051152124946950
-0.269227671558188 -0.623738736823980 0.439009203756015
0.680799493650040 0.292957501857504 0.404813099085276
0.004715058316445 -0.150756847768181 0.061697692285377
-0.797390511965532 -0.350476012821399 -0.018925770789884
0.134637892935818 0.123303741965768 -0.158037036841186
-0.687444763749239 -0.141173798298610 0.046331846097049
0.159489041996832 0.052354756624981 0.120225738466555
-0.308610616642424 -0.017562050651424 -0.168809898247512
-0.122393358632862 0.098584479032198 -0.050400449818363
-0.136812760973854 -0.094308847806203 0.834358812435431
-0.211131429320729 0.171662866286248 0.622829335766333
0.259206871404185 0.340321650856306 0.362171588757096
0.598530251826912 0.047865146912129 0.547171377841251
0.013648109922357 -0.176033054852481 -0.004894450052670
-0.323552352248266 -0.055772159436817 -0.196724981764081
-0.162397813064928 0.271051856743775 0.813159751504478
-0.398569776920157 0.594250685160866 0.452079820788321
0.651816402544903 -0.444137242583164 0.288755366971069
0.130548212749560 -0.112036746876172 -0.002635718520976
0.002480733783405 -0.212878543297479 0.190242237242178
-0.062321986841846 -0.155282799866703 0.798656718434587
0.076031326989543 0.149653139349569 0.007768991187613
0.087250319721222 -0.243308561511323 0.502431082559818
0.162157196965716 -0.020332815976258 0.140833940877036
-0.153991642990229 0.024704698557167 0.211587787569420
0.032831772392546 -0.321156236536904 0.704307274432859
-0.208690661584674 -0.104939210895038 0.546564208603043
-0.087570959164860 0.161577181407414 0.046990181161411
0.101627874400020 0.134124029583520 -0.112532994364754
0.143881764417579 0.074012709419523 0.149848292045848
0.035494677954426 0.147418736970230 0.228634413209502
-0.237726283752558 -0.396415566098014 -0.052760056021139
0.230208271953683 -0.411545130067352 0.674919402945644
0.146989196751273 -0.394136870514507 0.744532650454060
0.108833101147225 0.121705914754505 -0.040033170505208
-0.080042983404109 0.127143034686130 0.791379760393532
-0.171263784968672 0.046582805679695 0.020374410090707
-0.117754600868679 0.095085357203886 0.159245870082802
-0.020151644241526 -0.162437560585935 0.535573588271826
-0.839436341193020 -0.070313052090624 -0.197248177235215
-0.410172350009989 -0.227729569479223 0.375340682712146
0.042730863415164 0.228088486327658 0.365201844350669
-0.700649196148214 -0.051909047246480 0.517133891518825
-0.233416492868098 0.319312356322488 -0.116932729780053
0.348561569514166 -0.072811967577635 -0.083981997670741
0.104292480664856 0.351084844831008 0.791655266577553
0.137051415427437 -0.065087993483037 0.022743536976934
-0.256588008994790 0.580599247316931 -0.310804390021930
-0.136216013161831 -0.089422908678606 0.638978693382875
0.293748379259948 -0.103040082425874 0.649540880130384
-0.425254499526337 -0.096581504314393 0.550506275776863
-0.143548751238813 -0.044084366812071 0.341294062146039
0.005983070935892 -0.775027826704055 0.061331090773016
-0.062508054347648 -0.418664900831761 -0.136595061245907
0.150804613215808 0.164793529008330 -0.130930338146954
0.093756453029150 0.365165135380738 -0.148888478244268
-0.197521123372519 0.416561569046487 0.400611675872248
-0.220272149523212 -0.111617013894225 0.674619319725503
0.419097461263919 -0.573774634705615 0.320015241375201
-0.724729530009435 0.136765590898495 0.463465858201338
-0.821559386683966 0.229708362476793 0.203359229499526
-0.479352217116063 0.694618305455696 0.160826916140573
0.150643148262267 -0.050215989501292 0.107459261308005
-0.575221716699095 -0.583773706898088 -0.243984735048827
0.145482123664963 -0.072932638216969 0.081166624350940
0.694332838583221 0.456403696708569 0.280484264256837
0.473345005799157 -0.001003383913681 -0.017024875211848
0.084835270425410 0.167987058783198 -0.166883927645119
-0.257875309169110 -0.382640182979868 0.599032751572836
0.194725639765513 0.028009049942400 0.372526197784283
-0.177327470195826 0.038228692477875 0.551376226604979
0.258528355121340 0.141794939291451 0.046851064030789
0.505147536413779 0.699754204093370 0.084734216092833
-0.062354795705479 -0.183473936395774 -0.006948609023151
0.631011273104141 0.272382076675720 0.249587395602788
0.329998451507213 0.251839863568405 0.192609330256858
-0.369041295910448 -0.110604608566467 -0.047955033675397
0.335259628275943 0.620155399717302 0.321753987617991
-0.178311936292624 -0.684335194862129 0.233818899967196
-0.013598449328493 -0.167007814935692 0.711446409723523
0.090365833652286 0.124700420782453 0.240237556823302
0.295403748338701 0.227923190452687 0.126028341432461
0.171071715513852 -0.081550429338474 0.005851291782064
-0.084933212024207 0.180472579498352 -0.035188580000416
-0.045099347646146 0.155552430583758 0.205311685241432
0.616970873737194 0.475080007953943 -0.170782794130179
0.099039255164771 -0.587317100950130 0.430243617401401
-0.003437727418514 0.518770089814744 0.619640634983093
-0.354057515761369 -0.117560372573918 0.101886823154779
0.704188536485967 -0.119726691371839 -0.364054547363960
-0.086996121274951 0.141585603013893 -0.015154921875859
0.202380407988414 -0.152670512854307 -0.231913565566513
-0.010507014449745 0.150587209897967 -0.010043820057093
-0.454407968399755 0.708712065743753 -0.087670000760937
0.505368911590159 -0.147740638991327 0.296591765295277
0.526261178909571 -0.309661796705323 0.043803986085550
0.523083572010693 0.616023842797256 0.038863525026180
0.129707337590933 -0.280120461201511 0.735915135894382
-0.166484582721995 0.022259444769139 0.039234682435553
0.271176006080026 0.304300686144999 -0.237959378065582
-0.154506870851905 -0.159633333162361 0.693186003644376
-0.239398791218275 0.282629242691245 -0.182337965719732
0.190810644223510 0.033207499650040 0.667196043639764
0.151179112520169 -0.032595774739605 0.117076744252033
-0.020049016010393 -0.454748969083389 -0.386659599028860
-0.274924768049053 -0.162119404333875 0.227825604773699
0.146819271555501 0.093178538080656 0.610894380339490
-0.181525931201988 -0.687893003456822 0.397286958928358
-0.123596330474012 0.085792229951062 -0.022952735708599
0.139194138252399 0.067279278867098 0.213632913369457
0.164832964722032 -0.014689309549916 0.600060601445246
0.366301892637572 -0.568585236964930 -0.120045907131217
-0.241993622099704 -0.009010187561201 0.838020692942155
0.013053042006346 0.194379170053578 0.838817260474739
0.125435500703387 -0.089250368714015 -0.074598101885935
-0.131656309162244 -0.091330531641669 0.379084248556152
-0.388710439458272 0.136835893519928 -0.185690005777327
0.261231851391485 0.038513759794406 0.265183700553479
-0.013110406529572 -0.387930979291630 0.482811310934862
0.340953212622772 -0.040899144901455 -0.313477680537811
-0.287975470063777 -0.819553432031200 0.098682067909029
0.579523388663759 0.160783911017657 0.532063331687911
0.376011761069442 -0.314259835512482 -0.274671159701706
0.271483469859074 -0.306835888914496 -0.256870199753869
-0.129488970061710 0.837954880595775 0.210255392439395
-0.153752833299557 0.013185487053828 -0.073459738814749
0.101554729423069 -0.282456364491379 -0.222587345727943
-0.015691627254596 -0.290819546405917 -0.053679164018369
-0.067877161532808 0.148089608073110 -0.024278672619443
-0.087475012116697 -0.121956006062816 -0.019934075609276
0.573073393737287 -0.586929424126490 0.020107057936324
0.485368398986278 -0.135349173953290 0.675136021494428
-0.149963570813513 -0.006324143975414 -0.000620166096655
-0.019201815969294 0.190167021867758 0.778734642874705
0.033546544830858 0.349039189265877 -0.130888193723721
-0.037671412459599 0.145701959358971 -0.014012921299158
0.023842407227455 -0.152912528252136 0.108317744788183
-0.819586844531271 0.250871905171733 0.181899660859857
0.418164451702313 0.715936407291576 0.259349070261668
0.102133240645118 -0.130895420021072 -0.019144099868469
0.293015079176268 0.324994459472233 0.703361427470837
0.146493097344557 0.124180641550891 -0.285204323848408
0.209582489866450 0.162983995885566 0.760477140168150
-0.583415479709721 -0.215794489483248 -0.134675868431402
0.679444557765148 0.239806688356614 0.479856578204629
-0.142796878010840 0.185859502423725 -0.030245972793382
0.088039312809717 -0.386741151113845 0.193372987268996
-0.009534273565675 -0.169469272406733 -0.128962122182530
0.008357468445476 0.650667887561171 0.587544995939461
-0.039503473253809 0.155724953532699 0.645436200903156
-0.078628273140405 0.446746719582650 0.690876398418017
0.062141616240898 -0.815203703290704 0.304835202708661
0.232385321165579 0.000007576243108 0.177318362548216
0.153916501045910 -0.020238189192285 -0.116761340651786
-0.356739915039200 0.428551859227911 0.587660762120127
-0.296267748655980 -0.045139151784462 -0.422690899945641
0.069496610796819 -0.518118386351814 0.692103222675598
0.442134211393598 0.097425331536484 0.062768200653810
-0.203969839760182 -0.031995777069871 0.782171324024558
0.194399650340450 0.017556216715837 -0.108648343022095
0.179581262293661 0.272262198300585 -0.258124462565137
0.177244314889192 0.032550758198662 0.152525045869581
0.513689737855196 0.094867622720899 0.546419245086299
-0.003290887247251 0.238259177420577 0.735215101595563
-0.163710153632210 0.047262464145828 -0.098664696980778
-0.732753462048947 -0.044310008886261 -0.042408384930849
-0.005241310953356 -0.150154606686595 0.184189772126564
-0.294272034072789 0.125701235113313 0.787615476867005
0.032881032000631 -0.798504520707024 -0.169618528598320
-0.108629838361663 -0.131740962442624 0.216220163628578
-0.270708155525184 -0.167957080577941 0.512748183493586
-0.469555871109137 0.468815252178931 -0.175470640069279
0.317634700394252 0.035478900148697 -0.364130222515516
0.125789803988121 -0.124884661764758 0.831585172562939
0.211299382419489 -0.294833847858072 0.798389117549740
0.791650276205758 0.062793443326414 0.071415624290078
0.282323288952778 0.048790945228990 0.430676488155155
0.152212034727005 -0.222525779888710 0.808226114330847
-0.188093680374334 0.216684682338917 0.000034525610953
-0.046818714805838 -0.143880446132328 0.098823285187640
-0.361893884968689 0.165936783391052 0.384828060068314
0.234815840647207 -0.310988534611569 0.151147334767699
-0.371460793489590 -0.065587086982584 0.663194894811450
-0.152738355218765 -0.282795287945576 0.814189521729946
-0.412485692146485 -0.742214387116194 0.211955262861085
0.432149299939186 0.306125637299732 0.613871934862052
0.244970513768406 0.157568842983719 0.406198335525901
-0.104495989718529 0.432099458280746 0.551067875754144
-0.148924533569794 0.073384944479393 0.114404364388493
0.081825149785430 -0.326783151295003 0.741289543983339
-0.171103102234045 0.032163137334335 0.480853875149252
0.186605855643312 0.042150606401140 0.533960418414979
0.240374552240621 0.376051817554896 0.670855967981195
0.043566186386920 0.172287422373378 0.105012287728952
0.037917229624758 0.336624459040539 0.797048996794361
0.000398491983020 0.150933116997266 0.150926495805645
0.178914543076347 0.140309052609758 0.552100701562588
0.319155536022239 0.275813775520414 0.759716140233302
-0.744199096235434 0.098298156023794 -0.219869953843836
-0.162480330773115 0.410522820644070 -0.369816309417710
-0.336711814822727 0.254739269281970 0.597843899744391
-0.613424375489499 0.464099356244842 -0.143383535645289
0.118872055551943 0.211173544323952 0.297823450235519
-0.076441703143725 0.474307821131532 0.701072929588666
0.019748935787991 -0.170918038075275 0.838277395417131
0.744225404148031 -0.116780935935703 0.443661424032484
0.074517716033370 -0.136489486720054 0.699618850151499
-0.083045944659307 -0.127384294561432 0.384125814645781
-0.150092231781931 -0.212805831434523 0.478946274236696
-0.143160397682252 -0.061728144406217 0.692490440772450
0.745763390228549 0.167256699322978 -0.038063148976709
0.522787706592352 -0.003275338940948 0.281909873683304
-0.476456115431463 -0.025104304512718 0.556039722233514
0.150341760209930 0.578151789854775 0.573197869524675
0.153175507347583 0.026132918220010 0.398714966687423
-0.277665056055989 0.610713244293992 0.553218607192219
0.305693278992369 0.372220369025060 0.550288426736499
0.190149113486163 0.117168524855899 0.840958431049712
0.038451563425854 -0.157872518951605 0.239611538595481
0.140457090791563 -0.053523624598799 0.039703674360355
-0.720897826181721 0.243006245570382 0.434648496697324
0.135186850370565 0.253308353887465 0.607933289663062
0.214872368697909 0.262551864089896 0.211455988588049
-0.161291260867884 -0.214862411036921 -0.162661490898620
-0.117247188541248 0.100240677491583 -0.001125250121954
0.321301168253682 0.055361185537500 -0.045589907850767
-0.421073515057592 -0.181981449028382 0.656119046690423
-0.075543657715959 0.239532924586516 0.622710256170799
0.139815670626172 0.248656342050449 0.185330663341404
0.035231980301144 0.221567830408615 0.538581114226476
-0.514404328429407 -0.333974114220668 0.456631600931143
0.471924041491650 -0.612671981617376 -0.135985426167820
-0.044171808411527 -0.470053056674040 -0.366063399995933
-0.806855424670879 -0.113827753243917 0.315929199856164
-0.245620756416482 0.288702757561817 0.052574557092905
0.048518302352626 -0.187235331118064 -0.000429183065583
0.156072256601724 -0.096540951576522 0.176949559458774
0.236353317221911 0.317353009639476 0.073167547368737
-0.129657468561344 0.077529687876170 -0.006977785107572
0.663737924074675 0.252037511959697 0.009485117301391
-0.192507933012633 -0.016504090995257 -0.119200559833445
-0.004868173746866 -0.231982645692384 0.492511604307972
-0.549021766047664 -0.290989466957107 -0.307398586802888
0.045593084966966 0.760421029691706 0.433046883852653
-0.517134351376249 0.368499494642381 0.566918754189193
-0.486987180568110 0.422593470202155 -0.246124318683008
-0.408503658570507 -0.475992814674776 0.604070887568326
0.088800292197890 -0.122523459852198 -0.098577000102214
-0.173782793280557 -0.038896859409151 -0.010219731806896
0.256210899906055 0.384093208573212 0.662344023273599
-0.665337805489171 0.338328499622492 0.196420327523610
-0.017545526261100 -0.189200031807223 0.202197555159122
0.143211338316297 0.113514504271962 0.845112168960055
0.038452161540903 -0.409190305505205 -0.384055799329376
0.059257843132305 -0.807313370644853 0.267767463010625
-0.249894263104618 0.452846650250149 0.325009988238844
-0.157520250712403 0.065456896794716 -0.082262981921230
0.625253176773265 -0.168729422932380 0.338679234288261
0.210830350597892 0.088434871577570 0.762147139790330
-0.465267064973070 -0.656750192605422 -0.005827775058220
0.012484232465133 -0.149480321147485 0.000042320887667
0.370245651748906 0.687102209411414 -0.194090221303398
0.011989777194647 0.160667048913093 0.854787234553078
-0.044271038139025 0.356021565477845 0.172482796773477
0.037261545335210 -0.202283041999950 0.206655311525276
0.114959689132349 -0.100190916808944 0.056240975970942
0.030741427486227 0.320679975319374 -0.310142020458739
-0.078895135594421 -0.207483620035301 -0.234126783434136
-0.159755856819632 -0.225872730184562 0.107813642469067
-0.187411252262944 0.163917363308714 0.038989378941004
0.167002347145035 -0.494423518741026 0.625315258943485
-0.156274225741622 0.162990642517230 0.834066016665257
-0.018808866646154 -0.160340572841412 0.694251206669867
-0.158672516298457 0.090905719493677 0.458449748613865
-0.028395186065778 0.461480696440237 0.329671434355956
-0.072877532018190 0.134354881957591 0.033216181570405
-0.285454514563705 -0.371337754172772 0.576976371137168
-0.275734522374145 -0.618138511755819 0.540071178218796
0.614393636901477 -0.209187852671319 -0.313129657016164
0.166380212650192 -0.039109781030552 0.798218831536337
0.039039569962263 -0.162768373587800 0.417695518980772
-0.215202262205729 -0.051319298434206 0.763891439402371
0.199553738546874 0.462918957325638 0.161533937563031
-0.703495373909599 -0.262622410459908 0.388124514846749
-0.030557235743798 -0.336563460341030 0.198578475315988
-0.339985106593152 -0.344054827149084 0.566291657139185
0.092402571189299 -0.138631861560642 0.510337285537196
-0.139589801146368 0.056239175078358 0.240250690525866
-0.285530773003612 0.605239087895078 0.344496174644256
-0.646788542535967 -0.136440425909232 0.576115219919336
0.412899143407773 -0.027010993106401 -0.200867093510434
-0.148088984132618 0.041185008142271 0.415953145420202
0.148817988041875 0.022083141635335 0.554659429706015
0.819793272063463 0.092925143278405 0.106012818819458
-0.355062155870342 0.085433293869804 0.787946504447719
0.374901250533541 0.072774168386426 -0.099883572636941
0.145511994914338 -0.405372650162071 -0.304136165425944
0.124075100395262 -0.198536297375546 0.416888401879209
0.082172280106764 -0.283078636838957 0.272897070976123
-0.289247726337307 -0.269939970403722 -0.079069398761325
0.031859935594780 0.147933248917265 -0.060377335190809
-0.178947754777021 0.081900460829818 0.012710509317663
-0.067128448242592 0.134503104633967 0.140226326111399
-0.001994544557903 -0.589447422631068 -0.333848146129077
0.687669576376366 -0.035668856062702 -0.212295825949515
0.393096266020565 -0.595870929823259 0.455316149193029
-0.536640293343652 0.214938435932620 0.574236281475930
0.129466752104942 -0.075793690970875 0.063209925184668
0.526613458519998 -0.372638374348016 0.378058554118883
-0.141410465880993 -0.114676467945424 -0.061204005750391
0.208846054236325 0.142547227336100 0.477543454139981
0.162507302175234 -0.005522413457973 0.024709921892074
-0.125735749980969 -0.124601715800859 0.854687665450475
0.252091204188949 0.040611616824088 0.549664828103669
-0.077349793658872 0.130451673548759 0.309847675713555
0.552011611489188 0.441573997953365 0.334034252389663
-0.480715865197084 0.279875325852366 -0.073668156946591
-0.280092505047880 0.427294163722036 -0.050998151985375
0.390483148852093 -0.645914391279575 -0.114620104600981
-0.379496596286812 -0.752331148144715 0.136032525746856
0.203561684482021 -0.173399670016974 0.304271416279292
-0.064875974781158 0.156293962795722 0.327516741143131
-0.016478185040279 0.161945044404527 0.272264741629770
0.598652658142403 0.451562238819159 0.164018824422239
0.483292828972839 -0.042879759846797 0.570497991716299
0.117612434973744 0.378671260628643 0.781004286208815
0.724466347787475 0.099000363917591 -0.215816181165007
-0.481003360523693 0.233933969505217 0.612704548669054
0.233846731009730 0.148166634487815 0.673954539909126
-0.718372892073171 -0.447067397670970 -0.108834051017199
-0.012304897073002 -0.632612440637287 0.606158282113664
0.208889436374514 -0.206828204692841 0.626510687545275
-0.143040773670593 -0.046283903148164 0.353132424398030
0.565676027096803 -0.408923861101490 0.148720114614237
-0.291244622205184 0.702723691393885 -0.157182593030032
0.278292288945527 -0.110288130950021 0.092449267007353
0.064295861396527 -0.734633526294817 -0.337689778920544
0.507803282422012 -0.705543412551736 -0.001239851950060
-0.636152744225512 -0.472079439737235 0.351335056361018
0.433246503199184 -0.295214523821169 0.698883826958140
-0.292957130682300 -0.430259098466493 0.545433956234305
-0.081350379485544 0.306044481765920 -0.249625033405822
-0.226214242930039 -0.679880823412322 0.371469941962449
-0.034544180192611 0.146656019428627 -0.059091558513138
-0.527961534371399 0.551133218971850 0.414821199136837
-0.477998569300431 0.052072323992826 0.306834210366437
0.298677254578558 -0.205230795892769 0.778805085524489
0.223424874028837 0.565549346515159 0.298747372182951
0.184553862053705 0.300530497160008 -0.089427042701307
-0.052875262332311 -0.712174561682709 -0.129250721423245
-0.202734633541081 -0.240535813197618 -0.093711511471121
-0.303738766762043 0.477043731865728 0.612074280565445
0.224410056770006 0.177829464760625 0.808067883463135
0.124269989763175 0.168962320898285 -0.136462852488746
-0.105349948868915 -0.144398033681688 0.386467236449579
0.059695289286662 0.143388435926243 -0.200495330904868
0.391365338403619 0.393929627683308 0.604670048259612
0.654974413754133 -0.431889518803854 -0.234463837463996
0.637364210422108 0.518806680180439 0.300996311705013
-0.057790916422886 -0.156724420987498 0.234685673421728
-0.072991580507739 -0.262578179960572 0.744203217726126
0.189841266581275 -0.124713936795557 -0.070118504259716
-0.030936918926112 0.163669716809713 0.292266016053191
0.092301756308641 -0.168092525724009 0.463453279055591
0.404084407335611 -0.004846921214145 0.777952382391600
-0.113578372698960 0.103156505620680 0.858209927942450
-0.364471825388077 0.422401600087082 0.575972153990010
-0.259230261869692 -0.565256465921005 0.616267315924522
-0.221446766261165 -0.006682946440131 0.018016808033074
-0.021277209647099 -0.260244284653651 0.784746762683345
0.296578756557492 0.100580632414760 0.412695569308579
0.112328110484233 0.166916349830847 0.801714410913034
0.604534476035888 -0.437411616003356 0.445564563046428
-0.429884699111066 -0.257015164516855 0.555131306649614
-0.874135692669730 -0.040944336177469 0.036140559291324
0.013556066427683 0.306138707443272 0.205844888621783
-0.024341713962116 0.148404932828558 0.079745112922653
-0.067251082159887 -0.385747036693128 -0.218433841365638
-0.294058139717027 -0.153019436643075 0.403999616589445
0.323130197174723 0.423019081693704 0.525694180041648
0.175781378821391 0.229043871152031 0.678333525796169
0.136265086359615 -0.131129826076517 0.311693064673713
0.051272552000642 -0.660589472469595 -0.211994962872937
0.198394185816617 0.036405028917827 0.406561981855023
0.133047896719273 0.145869782463307 0.046312631446708
0.082093405802186 0.156205859207092 0.340075924088922
-0.782640638944473 -0.073007418226226 0.374731594024801
-0.162560504011377 -0.335295230168208 0.765767648617656
0.053355375595244 -0.154768979581841 0.403866444975208
0.099705967859725 0.122183972022876 0.105299989839829
-0.472717929818673 0.546225661916428 0.485565343980524
-0.008486307553415 0.173131442231381 0.769401908496956
-0.166466081270413 -0.063291869880426 -0.106461736989640
-0.684981436017981 -0.027883941083122 0.544976016722528
-0.342793339713449 0.156271555223519 -0.100678829700938
0.236864969794231 -0.240662068411094 0.528889199603489
0.211043131256773 -0.570048039669748 0.616512185970856
0.133212975843671 0.072863946178615 0.694818125419992
-0.135218772733723 -0.065161072120434 0.018733205303004
-0.277099431876756 -0.201709715289509 -0.352682892454217
-0.126735261695144 0.443343063125921 0.057190150812037
0.154573732667402 0.180948729236576 0.828571699920497
0.142867806412657 0.047233989455953 0.202399706377819
-0.249915668373236 0.681496882921917 0.428144645849572
0.104533051508835 0.109784436820213 0.085912958698996
0.055970688767044 -0.200649864657236 0.735040737023014
-0.209141904491977 0.074794488431165 -0.233757470078543
-0.005256716593952 0.150138443414347 -0.010383489920501
0.385897916567479 -0.609148564138428 0.351096554148948
0.014623879648924 0.159303703798426 0.277994629452699
0.154088418669662 -0.040306149550780 0.271724119914508
-0.154524120738737 0.010109619353784 0.690355905613987
-0.187602653871016 -0.313393235605482 0.753117296282401
0.328398563933766 0.235549045244261 -0.279856072041136
-0.384551919546802 -0.492514892515173 0.398452267297244
-0.322918669110670 0.728824837171807 0.351666980262859
0.497229718709240 -0.330858516298435 0.006726071946590
0.437463673393409 0.360694777806804 0.478434212406141
-0.132454274868956 0.127439307231561 0.849377693428348
0.215533192676290 -0.126586100948012 0.138302114738904
-0.569839124207980 -0.354950742792195 -0.318421689288053
0.022853370202254 0.151863546672388 0.690967185324710
-0.190650892097561 0.051362251833246 0.142918300440208
-0.313763668302131 0.094665731191079 0.608166936418820
0.137775529988765 0.060161787319921 0.009618380033771
0.370460953077882 0.264682319388987 0.133604941725143
0.140501883662592 -0.052565801556219 -0.017680072417459
0.015225372206248 -0.149237584540546 -0.059181064435325
-0.143188018180522 0.090623512260860 0.855551905215828
0.014611095072387 0.293002386893368 0.753914592937043
0.630025170869863 0.557399906879554 0.245791058922369
-0.064285375570039 0.323267572234679 0.149928485374655
0.397528515742404 -0.239660585860235 -0.079748718670690
-0.089680644643584 -0.123526329719855 0.184440898161125
0.213836408368035 -0.254387222661547 -0.022331283708625
-0.158273334504852 0.289422325165974 0.601949050542356
0.516016357920713 -0.467617589560038 -0.029649924071775
0.013511402986091 0.362361778565703 0.797505991971739
-0.390866471320985 0.213676470626989 0.161577321360680
-0.006346989646064 -0.231551669042876 -0.156160787824694
0.144998401801513 0.139342117721104 -0.050968991789278
-0.126561509874462 -0.190972077646940 0.672167192187100
-0.120696213059978 -0.123204850648314 0.470967497840023
0.368045740634252 0.557765306957545 0.366120306831427
0.004456523068819 -0.398738480435084 0.765867596010121
0.108110065132913 0.325337442615146 0.572086931410982
-0.092696536388005 -0.125507647582902 0.862942069115146
-0.093082308072697 0.119139529743851 0.125755075590563
-0.197623633249336 0.561682489637343 0.583112929485209
-0.134148839889295 -0.432938491428176 0.110248962769023
0.549479389565563 -0.086656758089792 0.543518510167079
0.544880831114097 -0.275692408515541 0.624526977373924
-0.118472608932477 -0.104577728544331 -0.008534286335722
0.795944360497898 0.293431637300222 -0.107507604203786
-0.475692811240067 0.182564424548766 0.576668613888558
0.201889428931580 -0.432107491081791 0.425475057075776
-0.213829999480525 0.362370635651410 -0.047966587514984
0.140864795192205 -0.285528975799147 -0.209103465664129
0.345361079606337 -0.056138633189555 -0.004691113790383
-0.164511269904641 0.037874232154006 0.033320253162299
-0.280337423126021 -0.381506991983502 0.718726319910161
0.746565408008800 -0.361838876462362 0.259998648446111
0.304347398614068 0.119227384570480 0.796478899663318
-0.489170140005968 -0.277471352336982 0.631852453782320
0.283921808031254 0.392580070350682 0.526108857708700
-0.054869266717061 0.308813104229000 0.039556859454944
-0.020246689811181 -0.148628146588405 -0.003892053818046
0.093946858840802 -0.136072557802739 0.299100393883269
-0.039379662159337 -0.150466581281242 0.364608622390904
-0.142157408434658 -0.154316038853438 0.797968229851752
0.140320525983165 0.118659982051465 0.222390730878848
-0.500829172671158 0.645906284536716 -0.211869508567719
-0.420957490399240 -0.758623265234274 0.120330153098406
0.186728336535781 0.020223816715622 0.644550978127971
-0.173924803624779 -0.588113121682799 0.610046786813891
-0.147519959514421 0.027361255119416 0.044720969660819
-0.075999271502205 -0.191353599014906 0.057935619461502
0.345697610432585 -0.444544870128030 -0.368075910286762
-0.186705400386671 -0.282606968675389 -0.156614737656990
0.131462281474788 -0.364916087987272 0.457988271914311
0.253804200245104 -0.075029777758543 0.773578455974635
-0.087237368038428 0.126895238910164 0.842714590314655
0.161210444699358 0.029555502645437 0.095449240214125
-0.140983907508221 -0.051283715992537 0.061546269511967
-0.316208351353600 -0.602380508691976 -0.339285681491808
0.620662860769721 -0.137544814196895 -0.159462420075787
0.209137463855285 0.005310344758719 0.011864187044026
-0.082834138454700 -0.185047612782400 0.755032206722340
-0.163822655647674 0.286493616730461 0.797355579552091
-0.141165208274867 -0.053220287247455 0.763117790025395
0.195119760315073 -0.109212186200326 0.460428769627270
-0.453716530619564 -0.052025786313712 0.732481578066496
-0.114717901314159 -0.130739090700521 0.214116356131041
0.042211429511225 -0.405890508574940 0.681971984850375
-0.314817476114567 -0.255036830453485 0.765546568612301
-0.709895902793887 0.111446077898755 0.442350778174025
0.178477810735486 -0.076827200941512 0.695655473565903
-0.149577472389540 -0.011613436436778 -0.002994983032604
0.378917026427544 -0.296807798017110 0.170668903387466
-0.507961499688527 0.186811484047001 0.569756327006930
-0.160981044548953 -0.066854574694456 0.642782304144441
0.147156689576369 -0.068102414281229 -0.034384782942191
-0.073400196411295 0.133467473271487 0.367657165143633
-0.073385790993866 -0.130859916622145 0.747123859044655
-0.131861076182765 0.215817096141478 -0.151627685846796
-0.120999772532818 0.097375887655042 0.010384739133669
0.159092862768691 0.026251486744522 0.006815993325054
-0.109801099528613 -0.200265461792702 -0.102599426717127
-0.021434869833634 0.150765093382468 0.306905546310830
0.137078941632791 0.085166366400065 0.112189886772698
0.585879403630079 -0.154077331064409 0.562712783842972
-0.794801797756305 0.293713224975969 0.032040723854215
0.005737931533338 0.428449383613690 0.765175819499721
-0.282472133326901 0.612588160620337 0.560386587947250
0.010401511344911 0.749276842288404 -0.076465592950672
-0.367155539461644 -0.274928409372558 0.592142633338997
0.314228873347350 -0.168785405324346 0.600087607713992
-0.050097003465474 -0.207315090920695 0.484275401407240
-0.013649312763673 -0.167140215586218 0.082360477745522
0.830283710322173 0.247734692562964 0.116138374138521
-0.146995213833232 -0.571749068762812 0.600323294230167
-0.325625289971419 -0.265725405972747 -0.444820817107569
-0.078292646787753 -0.244039514485907 -0.031852511473442
0.158199398670191 0.015061230277991 0.108393934860552
-0.710304991922902 0.185370996231543 0.104059649620762
0.289924062829808 -0.074205938346032 0.130965390680435
0.511288014134532 -0.599948378568076 0.298124026004921
0.080513410496411 0.140173598922997 -0.205098441115977
-0.217658890356455 0.266391058172164 0.181270762087812
0.361859792551840 -0.713773005472913 -0.127428936679659
-0.332409923405857 0.419330240951047 -0.362619503132146
-0.109503901998677 -0.327330047896809 -0.142560355634915
0.062039675287302 -0.544313403677241 0.680119211359980
0.155453780197106 0.053104133415972 0.473406249267478
0.719380668001276 0.073622429065650 -0.232607067724939
-0.080069102342763 -0.296011517510489 0.096988731626828
0.375080123288633 -0.347944926811084 0.601471380327814
-0.274692880549587 0.295258584314631 -0.076021892051915
0.078422410051978 -0.306719681248077 0.136984059376429
-0.547248804181408 0.034550701447544 0.578409510758122
0.155652149744046 -0.239386813467824 0.137229393019318
-0.092033130576862 -0.118575954713127 0.852141273306386
-0.615202874742019 0.164399081385387 0.588129672480708
0.265678884767018 -0.328396258349231 -0.210949477265959
0.168442953205913 -0.079974261047873 0.822759881930849
-0.047075074779173 -0.164972005109052 0.789499796324715
0.048534400987890 -0.383727605864501 -0.052127474696454
-0.017736064730919 -0.163757685407774 0.680221315708969
0.631520527035336 -0.295729399638610 -0.130891387196654
0.607676311154587 0.337635088471317 0.226780144213487
-0.229418395408967 0.154507917793033 0.810376885102270
-0.132695097542464 0.146707045682556 -0.175952513757027
0.118809595998876 0.093674177207749 0.741033176239890
0.219003877326778 -0.416479654088622 -0.228532423973064
0.223074479292145 -0.058543542760189 0.673913973609580
0.025636360624486 -0.154226851023376 0.288860007281693
0.443716920757636 -0.435038953478098 -0.037980513316408
0.394495593066158 -0.346321839521313 -0.299560999836984
-0.126224074709635 0.204143442421674 0.693169804756886
0.120210948033691 0.090513669525423 0.059038502540803
-0.550998112499671 0.010948966772569 0.164085032723671
-0.445555536341089 0.272635546207980 0.467651915901222
0.048078821260286 -0.147231828257606 0.624842748088485
-0.067972814952853 -0.657548438126771 0.543081892957400
0.108555870469881 0.111017289135460 -0.021728460976654
0.562477979428606 0.396869437563663 0.428913218062497
-0.786226325005247 -0.034228228543321 0.331610887100772
-0.439410448201719 0.647124141913073 0.303477125357911
0.221137160760605 0.348592213927259 0.771467159263215
0.002618171059949 -0.150464828990346 0.856961675630306
-0.371428802816808 -0.111663919969309 0.714467374059585
0.383223150130845 -0.139006925128676 -0.049192054475847
-0.233184658857313 0.034172640400505 0.354225865479208
0.272571886002615 0.052060549913442 0.681523307647586
-0.003981259962114 -0.546345598774055 0.365827710994608
0.169315006606964 0.052988652403884 -0.021912666316659
-0.215598118601614 -0.441493973839253 -0.088412015194078
0.033971288570999 0.237802739701747 -0.315174731221750
0.714358364007811 0.151024320782428 -0.035916811233996
0.149341591466177 0.147085318885662 0.314273430795369
-0.349646686333585 -0.529078055147562 0.605744998603888
0.284838945092968 0.603522842563652 0.263054474072594
0.660825108763616 -0.529362757211833 -0.179768148450872
-0.193933610095030 -0.051181537148925 0.220125702795804
-0.203402872037187 -0.149810259291681 0.806817063319404
0.538655249338665 0.440315471180015 -0.334988020038462
0.089983479937153 -0.125862893999434 0.031883829262224
-0.317349121865419 -0.132690662041357 0.619417169795362
0.298474136573720 -0.181633010209994 0.034196064347066
-0.395805927647204 0.131133118759359 0.550783979264200
-0.138057596699533 0.846042604407725 0.172885502550852
0.084378937693698 0.181069353232360 0.192720015264241
0.005218124449902 -0.151765406368589 -0.001079861107610
0.028239084446372 -0.664228534409149 0.375590538790959
0.036534307016734 -0.344657995610965 0.020101057593890
0.073912877433526 -0.132999490607642 0.016740060187202
-0.169080332576306 -0.048868037870206 0.717707919075611
0.840558020062987 0.137672230012622 0.182377909338569
0.287740670724298 0.035312027438848 0.742418917212797
0.360428233839565 0.018036874181224 0.761706400318111
-0.200889178609451 -0.532313689908636 0.647378368584401
-0.449711374297155 0.342611412179623 0.619837067497204
-0.179743431014516 -0.133316735513471 0.559294275185090
-0.130676038308028 0.172826420717654 -0.155126959083255
-0.873302431467544 0.035898667442711 0.036400296842117
0.833398957631003 0.214503920652426 0.129962151024309
-0.360181266710657 -0.040484812250967 0.126104003872155
0.132532427555723 -0.074295799622091 0.025099156672694
0.065283959006701 0.136014488780727 0.837998589062740
-0.281012633726461 -0.025483942428164 0.828599629666573
0.271104215264939 -0.009977132036786 0.488033749748537
-0.482034994563587 -0.572281442568338 0.377436561297357
0.138144914081911 -0.058751208258470 0.846820221613253
-0.198855100843184 0.243523197858864 0.781343994966971
0.237185560309492 -0.440291951764111 0.705031911050680
0.194643615606150 -0.444444293288128 -0.432007089222172
0.531223867889378 -0.386213352302479 0.579327341957979
-0.142954743474746 0.047883364784675 0.071623125547228
0.218686937900107 0.052770096649028 0.097695255366345
0.021747426759071 -0.148622144403416 0.161543689362477
-0.213228361734606 0.203930353955244 0.238647427872365
-0.180241080110946 0.018557222052416 0.790848948716597
0.116893074157813 -0.298412669048854 0.382496797381705
0.126124219641156 0.128511167643337 0.155589503101540
-0.060883810321104 -0.258150956076416 0.467154174000262
-0.205697683857606 0.072869135379809 -0.145683189938673
0.158972187996161 0.164668073774590 0.823032996581424
-0.569628693015690 -0.258936727346238 0.437050126734110
-0.194705164324162 -0.097001085221608 0.646452921520537
0.318814793416636 -0.454726533095974 0.632553839867636
-0.085779848224768 0.394565086471823 0.732527238836285
0.502474407917588 -0.521810854905829 0.485575467614362
0.151518342343744 0.110493587935256 0.624188158974564
-0.102396440788710 0.135401358837322 0.256374391770870
0.319318606078960 0.407195358375089 0.691512754113301
0.611056655709459 -0.205838450868541 0.561242689724458
-0.216558860137261 0.405832212062479 -0.405258717808117
-0.259963836281309 0.025538444555049 -0.038705421662018
-0.081506563101821 -0.196895054454426 -0.263972665523539
-0.155742057289531 -0.000316518336911 0.020923713245807
-0.148850936245624 -0.048263888457616 0.018229650538852
0.066967457585027 -0.146528229631774 0.832325881519465
0.131532141880921 -0.079563549368762 -0.128515141056900
-0.075671109139951 -0.147662520915395 0.468403948234591
0.114925689563750 -0.130954740574307 0.133488917442373
0.145161377057615 0.039252105790491 0.774697524980213
-0.061942425519376 -0.174457101489253 0.443630601864490
-0.209594939531030 0.118103636795073 0.195898022501465
-0.044732906608151 -0.532140003345262 0.666014466392097
0.219639592046368 0.194900550711693 0.818680827914301
-0.085399577574537 0.455267307191524 0.453679107419580
-0.171396898834829 0.531662402402440 0.635426869657721
-0.102831776320752 0.309211266489351 0.675853780461026
-0.225769182730548 -0.635429035976556 0.424330782135239
-0.273409401755993 -0.443214273400700 0.570076437800203
-0.286538385433455 0.243919144800649 -0.316755526538462
-0.234855259144799 0.344905256965199 0.644293103337464
0.435669452378885 0.294289607788399 0.288833083690566
-0.164372696678087 0.096835889457798 0.337811234999929
0.399746841705694 0.633108092280664 0.299246864327708
-0.061416142445078 0.445647348917261 0.260313733780758
-0.774646255438082 0.190926031051396 0.355735600525235
0.082988183251444 0.124953266813375 0.000113875006355
0.804930668313459 -0.194715656197717 0.057348685053176
0.140620801416056 -0.113845347716515 -0.021425035040665
-0.412106675092615 -0.439580222527735 0.483971990273025
0.195990052064233 -0.315782377967626 0.645129111392851
0.525549879335466 -0.343816960603147 -0.306492370691937
0.005774131409351 -0.201491547647890 -0.018051760059705
0.416021092330236 0.120106917065764 -0.041328965301167
0.548318206349284 -0.517829193188444 0.225716790636414
0.139599278619793 -0.143515460034436 0.049741432736078
0.076045517558681 0.144199339342855 0.022679309261290
0.104434728243912 -0.108988996474906 0.030381843238815
0.145171560934799 0.041446371702447 -0.061684686931019
0.239092270523243 -0.206536101161779 0.515216777298545
-0.152139876048267 0.713826157801868 0.154583492340283
0.102399730989367 -0.324559813669176 -0.136815911965545
-0.456972191750864 -0.256926124434234 0.637189603554055
-0.145068695106829 -0.129081105409838 -0.111871322455595
-0.291910099019021 -0.181164318979314 0.341693463530458
0.215630078298957 0.071802989864721 0.829161191529055
-0.031471768449212 -0.146785187982258 0.154276263082669
0.057576445468046 -0.145994085569677 0.466033981377037
-0.232215025885060 -0.789907876763736 0.178710852255144
0.033697471405672 0.762110257218905 -0.227565646726389
-0.140272926110601 -0.053136800244810 0.031638678890816
-0.445765914740885 0.075879092251536 0.563020966936735
-0.008613092795509 -0.149889034826656 0.162823298909110
0.306033377850515 0.160802441797217 -0.364247377655928
0.740324537086633 -0.110060504557227 0.349519705168744
0.147752752698484 0.026785110006653 -0.037188797395307
-0.176373786729478 0.289380120336625 -0.237818899005151
-0.232126470152826 0.619578546658915 -0.243140358459822
0.520299220391935 -0.666776616389387 0.221557590410184
0.079471075547432 0.251816603357026 -0.313165758459533
-0.174647099959325 -0.402386411802240 -0.013243513033097
0.510749478179366 -0.371486023142210 0.604003771064034
-0.270513552757883 0.490965229006562 0.610323091927417
0.139926670651621 0.061404908280761 0.198211839820121
-0.671201454994621 0.357043415936192 -0.139887354512230
0.005962515645279 -0.172942807786152 0.219769262776427
0.445945125322225 0.243184181478294 -0.412146842770334
-0.445406019428429 -0.072558106180547 -0.131656045049812
0.172640349966572 0.211496241539088 0.750989937676240
-0.359163146428640 -0.401668985422915 0.460022045175296
-0.115577274967001 -0.172001238442861 -0.212248871265986
-0.128869266798799 0.081030593143780 0.387592063793091
-0.132037195869086 0.319359256194323 0.062262463639442
0.057820032361333 0.494712620009876 -0.010038606484203
0.281950959126532 -0.711082136881779 -0.038628280464752
-0.019396494820394 -0.726931339705799 0.433243219529625
0.190764119474422 -0.808947961969061 0.230511032847069
0.164396589929993 0.018416707080836 0.236828752443775
-0.235377709926316 -0.042211526958011 0.714527137910220
-0.579194728935752 -0.607548709979018 0.239592234459963
-0.071173232881272 -0.240967247918525 0.592456290880715
0.157912847628333 0.058643939022004 0.088673830670879
-0.104093105096149 0.113418357916625 -0.034695867068896
-0.608255981740620 0.052842309477700 0.527373164567472
-0.214231485740021 -0.551268121702462 -0.016836749245769
0.044564098469868 0.350470658606493 0.226259505857055
-0.059621695860540 -0.263917513083938 0.824974689981235
-0.068004350884127 -0.546533041444619 0.669864320951334
-0.137698522922926 0.070002930198759 0.000183596204761
0.010319776737703 -0.221545596559825 -0.339935520089890
0.167977842335687 -0.008137961252701 0.770115634127493
0.331221137397101 0.349151070796086 -0.166256027425594
0.349075080905730 0.015709498035800 0.634875310823695
-0.694115901330389 0.500866437184363 0.179707025594390
0.639526531302602 -0.111854817728082 0.516059562823949
-0.299185421950866 -0.180295686583058 0.027015896460394
0.104400698624685 -0.107819802288922 0.139609860818059
-0.134489497865179 -0.341635628817126 0.743130208511838
-0.220472517039412 0.394144066045142 0.711510234433603
-0.085526989807385 0.193679604163344 0.838911119010989
-0.156077566603059 -0.037654095678292 0.032030651458762
-0.144043885698314 -0.055959542085918 0.687993429025304
-0.802756013173676 -0.091836819046288 0.296015226446930
0.066968299461629 -0.505527983689003 0.505089657453711
-0.022325524588243 -0.153125300379769 0.632636333522442
0.467233058092517 0.457450650082977 0.561344029503953
-0.348672446491782 -0.181554356879502 0.305906065312940
-0.130501422133732 0.113072377911656 0.830626645785818
0.560425247682202 0.109861934964003 0.654501802691880
0.161901742533485 0.069548027460490 0.023669022887337
0.144801848601862 -0.048601159358355 -0.025274456226260
-0.101296238534522 -0.178037756675022 0.390775294001327
0.489573200878030 -0.462376100494921 0.483054882974522
0.275717485021174 -0.260475371492236 0.063182387668869
0.701236689517194 0.131730536752544 0.495262942204433
-0.694760825320781 -0.310667806277039 0.379904889280313
0.202388321460928 0.087581554087900 0.378610848387835
-0.278259327722798 0.160416868976907 -0.109663025671163
0.179956947019793 -0.330197572035342 0.704121315884017
-0.108573328146465 0.288977207441646 0.426064033284294
-0.300180447210478 0.090824729454941 0.818756513248386
-0.124274947802164 0.444643594850799 0.743198411582867
0.048223057705535 -0.143983857837001 0.858411911340333
0.429035395846842 -0.375961163640945 0.582951579159599
0.711949739657145 -0.365285752379693 -0.143256287271971
0.125401175740548 0.082308792130024 0.001744050635249
-0.679794490611123 -0.362813858975244 0.305623296411624
0.149462775204679 -0.062391461176059 0.042384866958090
0.333312418758575 -0.132874869456452 0.222398972143179
0.261616196756391 -0.047394309450342 -0.322487783212406
-0.223377692220965 0.152908671230206 0.129171022417117
0.682039455957782 -0.394892306933934 0.319844549865591
-0.094073424920503 0.136421518793218 0.463315696626082
0.346707876994480 -0.321395889122452 0.205304471762161
0.130924790878752 -0.186841231245697 0.711930415910332
-0.555688827713935 0.176746548268344 0.638638766408082
0.297181223847689 0.799794524892738 0.116229542851187
0.221718108228095 -0.725818502543375 0.412951573587750
-0.057810942819100 -0.174000929270092 0.470211995247681
0.514336439657958 0.162551669983772 0.690911088945532
-0.107819099886600 -0.132242462954086 0.144670216725654
-0.202956007251996 0.454161767368650 0.599516090632463
0.392508693211902 -0.156958013712576 0.767601190183298
-0.613476566632134 -0.349291217521290 0.452469712947432
0.152550531814898 -0.057955284878013 0.710391888318627
0.105669423854798 0.185368429414012 0.029445974644906
-0.225901306056777 -0.306907556414226 -0.253843516340846
-0.099827330108234 0.450947611708044 0.682010983793173
0.140426865928589 -0.567369457258621 0.652869928240920
-0.188053790476922 -0.411327873700900 -0.398963350731971
0.208481144368660 -0.015754012294064 0.774048895682624
-0.080208213709705 0.833141760509495 0.056379452633955
0.790831736075768 -0.216002176016857 0.310467444263277
-0.196816353096557 -0.304198709009050 -0.304278586229014
0.059501938482511 0.141035636703265 0.043438047838994
0.454685648845668 0.442730337550233 0.432929141354103
-0.149720211200116 -0.039213820980891 0.141960316401977
-0.367344245783426 -0.288211443849223 0.645605065237627
0.164508610712884 0.673099374058214 0.194888240315682
0.129332675293105 0.076891422233333 0.222793840339340
-0.218548824535043 0.307451211253967 0.789840177682239
-0.077715316718129 -0.216936618621633 -0.045836292198151
-0.038988654186042 -0.276587929926588 0.607179741873789
0.195227805460542 0.378385169292038 0.041877319371279
0.169784730263482 0.472463808613993 -0.114727586071495
-0.074368977005201 0.130367064932430 0.035056995207558
0.148729794464248 0.020663535110480 0.066266050494185
0.418293109344065 -0.270305004296878 -0.077306798454666
-0.144088503286503 0.042756939197301 0.001101958972325
0.148137001695082 0.041742542737294 0.602333116089044
0.069310051070097 0.691815728496511 0.188284840762431
-0.718287733700747 -0.457877489281772 0.148941316239667
-0.065694706950303 0.185433505579797 0.705881229438448
0.004118926002332 0.311430770352582 0.444376489968062
0.155715986658659 0.667102927835013 0.545038781502364
0.091422630738232 -0.186883093045964 -0.241699796628183
0.452075978862427 -0.719241519965661 0.181933055035066
0.299762412731926 -0.309227133408572 0.677807321480949
0.160560376248659 0.002214312997028 0.782906936883461
-0.391873583440780 0.660828586992601 0.403174268147226
0.052487802128408 0.140767398088384 0.674319572522839
0.188186265947588 -0.136943815939949 0.392918986548495
-0.274760972761472 0.112405467800655 -0.300563243527934
0.182868744147627 0.077214511535187 0.415185620886658
-0.228730420295547 -0.428509787074542 -0.373596967776960
0.834567054567000 -0.066768976339531 0.244985620661999
-0.188365980130644 -0.066654849344370 0.347844269602100
0.005062087238249 0.150992416723280 -0.049358609175916
0.838598500682655 0.069294380884972 0.217390560273094
0.101631354234645 0.249312981919525 0.016560179878216
-0.465137958889565 -0.374920877349905 -0.090914524099209
0.172980303346502 -0.504703290130253 0.635129992897861
-0.868416942372986 -0.086427214095141 0.069939184994741
-0.189450965360562 -0.470435299222760 0.229681287757191
-0.426680049716682 0.048932484855402 0.764554393411561
0.261880487636131 0.210932704553131 0.753884596225229
0.359115238697286 0.092062157675889 -0.313127030640612
-0.287081653694534 -0.327784204565653 0.699319944406038
-0.091946195667540 0.130425373189721 -0.126377668930158
-0.125311709751599 0.321110128921827 0.284699835557665
