# This PCD file was generated using the MATLAB® pcwrite function
# from Computer Vision Toolbox®.
# .PCD v.7 - Point Cloud Data file format
VERSION .7
FIELDS x y z
SIZE 8 8 8
TYPE F F F
COUNT 1 1 1
WIDTH 853
HEIGHT 1
VIEWPOINT 0 0 0 1 0 0 0
POINTS 853
DATA ascii
0.260590124610961 0.099333219051800 -0.040943510502165
0.027727779167842 0.113944089435688 -0.041790849775829
0.062776783202920 0.116553533396499 -0.041485569979116
0.176164529684978 0.118177878315317 -0.040982121706699
-0.305539080192287 0.151405809969884 -0.041434147564915
-0.140905132453740 0.157196538542950 -0.041238924831326
0.007677436585746 0.210880922387373 -0.040951031699834
0.145639249264461 0.229392020274526 -0.041072881627774
0.085444621690243 0.350637051641051 -0.040939866725723
-0.137818376584064 -0.476120340491223 -0.040828878341627
0.316540175013078 -0.450628487483674 -0.040628115012564
0.167348639012963 -0.332268109579522 -0.040775962318167
-0.156940221700096 -0.118614480800510 -0.039981952324250
-0.184891388184167 -0.080996428378100 -0.040696748734061
0.097761720612537 -0.038247513393250 -0.040771048281484
0.055717666482986 0.060189776444223 -0.040742262128875
-0.131737026149298 0.082254920980542 -0.040721545639243
0.024785640201237 -0.221886034246681 -0.039330265251005
0.207973364395128 -0.183698516000901 -0.039008986797590
-0.069572548809974 -0.148258061802920 -0.039240052833206
0.158889078178778 -0.130220808489538 -0.039629517698844
-0.277142935449717 -0.102005542200080 -0.039003712328893
0.145515493014297 -0.070680568064976 -0.039297477535414
-0.105425511191669 -0.059228192423964 -0.039128085015252
-0.085690901567340 -0.042724074622511 -0.039816002652382
-0.111769342482167 -0.025223964856665 -0.039511987742079
0.310257152844893 -0.020030825077240 -0.039713879595895
-0.075323179880726 -0.006252638420385 -0.039360308546744
-0.026653920904259 0.002178168806955 -0.038838686945603
0.213928056329116 0.002715364933813 -0.039427811748732
-0.308575517352164 0.009159719765394 -0.039788283236067
-0.226156504043620 0.033974105647961 -0.039756884849615
0.240736677241156 0.035277958396722 -0.039555605979661
-0.082511484332508 0.051187551478531 -0.039054973988579
0.179217709705629 0.052349722111823 -0.039645027682696
0.327793398971870 0.059235458347494 -0.039133371040772
0.021112745752283 0.066143743700080 -0.039447538363532
-0.076797323456598 0.094543219132722 -0.039057846298972
-0.200462507340114 0.104175447092202 -0.039170669902018
0.280119385913046 0.129701579654383 -0.039024294582909
0.157372181332719 0.141058783764736 -0.039571861008644
0.173438604882102 0.248283681737203 -0.039474792980914
0.239399847342906 0.282062708156067 -0.038952541120604
-0.272174336087619 0.378130784341824 -0.039401521254427
0.129016089421016 -0.372381697606893 -0.038136262128811
-0.137545063131217 -0.340479133320825 -0.037840345422177
-0.034995709771560 -0.197465333955660 -0.038531420364440
-0.299838187830295 -0.187035549947991 -0.038377515340828
-0.060460881974139 -0.170220660834433 -0.038122342595480
0.126949243234159 -0.120716734887584 -0.038518897766765
0.012014850986275 -0.082490063297146 -0.038411040709111
-0.140013339882343 -0.068089159131987 -0.038522353248453
0.222082078061329 -0.068404482280331 -0.038516748980258
0.013975033871970 -0.065939688883577 -0.038137706800872
0.121540444044517 -0.057520743069643 -0.038130527485383
-0.087245827561413 -0.022058034249484 -0.038668868640092
0.060251421090847 -0.017933423151616 -0.038109109458848
0.221277182682666 0.026700715441233 -0.038508416280223
-0.209658966347859 0.054364387775270 -0.038556002228178
0.179021482982716 0.063798253211408 -0.038649037579899
-0.213227370454956 0.082937391141594 -0.038518250389598
0.183998899970880 0.095719461516444 -0.038515993544788
0.006251717593782 0.101405843026118 -0.037864805131609
-0.209027114391666 0.119021683085208 -0.038164747949874
0.029313499233828 0.120287134117396 -0.038362069266301
0.144463363470829 0.420703553771354 -0.038747141052929
-0.283047866218378 -0.451880530936271 -0.037275907978702
0.206184325522739 -0.323105754005770 -0.037452133733668
-0.280962111305649 -0.103785890166245 -0.036935396425377
-0.182931319640458 -0.100014618619058 -0.037690371182659
-0.179273127113860 -0.081950534193377 -0.037730866310402
0.075310578892111 -0.006678051646706 -0.037374739151099
-0.126437644770151 0.003850725333906 -0.037783221225176
0.106522231739679 0.049600161381522 -0.037638657698836
-0.298333450656362 0.074588603224025 -0.037645492912238
0.140074720871123 0.085192019823104 -0.037293512164015
-0.261967443255062 0.107714054592143 -0.037530535642799
0.227232928637284 0.132196925663831 -0.037728449043303
-0.324216368570297 0.153737372241755 -0.037723782592789
0.155273973598848 0.297936175302146 -0.037013147536091
-0.067938714546838 0.439818643823112 -0.036933865997494
-0.150114990342851 -0.445303787925051 -0.036786107848837
-0.288970128263542 -0.340553773576685 -0.036073458184222
0.038690403142221 -0.211585184687388 -0.036286838207801
-0.240503144081128 -0.122221025631031 -0.035942949634440
-0.030297173843169 -0.114647263975685 -0.036070926674231
-0.122267375550429 -0.078837123217402 -0.035983610333485
0.167655018680051 -0.064435340552026 -0.036741942195020
0.029775831610243 -0.060700521039486 -0.036450316053272
-0.089744884679567 -0.040699988152574 -0.036534613401948
-0.211656600767785 -0.005734940377474 -0.036778106465268
-0.057752652374159 -0.002507165098645 -0.035956022745591
-0.043828296427586 0.050137829127523 -0.036507190738791
-0.027595757142400 0.101569049718984 -0.036519532604734
0.247804173211847 0.287566332841939 -0.035987043363154
0.329531812451058 0.446750917968949 -0.036495964390537
0.059279999593861 -0.324838117414794 -0.035017580366971
0.042637402585563 -0.229221107017699 -0.035358530220269
0.096974544824662 -0.173969426196859 -0.035021125643255
0.254010451767158 -0.143177229067422 -0.035616291350707
-0.154222363016151 -0.120979152795074 -0.035288399609191
-0.062969105402952 -0.075233659497036 -0.035491502814967
-0.156909663854881 -0.058590527937216 -0.035492213353380
0.289772496377900 -0.050311668136333 -0.035097293692258
-0.089318973128700 -0.028813166441754 -0.035157504165874
0.089114715393038 -0.015701182736673 -0.035608813396690
-0.062203321633739 0.007949099217023 -0.035180349205467
-0.091316360801481 0.024415825150691 -0.035455786440824
0.124002865254147 0.050730621507836 -0.035147909822823
0.310016870897919 0.103368392187352 -0.035140782511728
0.315260081116287 0.123540759343290 -0.035248869658087
-0.222654148789864 0.240383010129326 -0.035264715020697
0.031430987604175 0.414384062334519 -0.035154894701522
-0.256145575481097 -0.431542436832324 -0.034674053697063
-0.059043191184406 -0.374079431409922 -0.033882720458361
-0.115908329866241 -0.296668687754272 -0.034154263662403
-0.119863970192985 -0.224261735364721 -0.033875334670059
-0.162435838435855 -0.206890970818044 -0.034591213788013
0.258405932123345 -0.165817183692650 -0.033946303274668
-0.315468024626327 -0.134824739354807 -0.034326354719698
-0.210352882683266 -0.127214009708885 -0.034245730394248
0.081899484679196 -0.119392388025788 -0.034476350636913
0.324509487133139 -0.106956731818582 -0.034606732329569
0.320724283617101 -0.097534502216903 -0.033918992696077
0.038620742185542 -0.060362825144241 -0.034190386626560
0.069437129834892 0.005402411121602 -0.034443212485968
-0.073107926870829 0.011894589727179 -0.034536078267365
0.093943397317601 0.049214115703906 -0.033942087139727
0.260014206831134 0.071692058766120 -0.034221539766023
-0.122307155636905 0.075581050210917 -0.033875983221333
-0.214009485191634 0.081242931378267 -0.034123150156848
0.294561421905083 0.108482398774547 -0.034596498140362
0.306803951561464 0.152539305079318 -0.034098566347635
0.068109070133462 0.170545381758211 -0.034416457516139
0.153120706735258 0.292552458039368 -0.034236472288958
-0.080917181467236 0.381207593665458 -0.034353382486226
-0.272110376896959 0.465855293516499 -0.034605079277323
-0.187072959088770 -0.230890221676819 -0.033348598088182
0.024615212094345 -0.209111228257253 -0.033118539737162
0.010585275645003 -0.136799318568905 -0.033206504781143
-0.112815410374747 -0.106428606848441 -0.033017289882093
-0.172450585097483 -0.086228883557830 -0.033352382511749
0.322504449480662 -0.075748966573854 -0.033620101372864
0.243626393123100 -0.059341498851149 -0.033204888693040
-0.233233318019986 0.050067436537967 -0.033362233742473
-0.192397770115872 0.061043131848725 -0.033234237668811
0.029819980204886 0.093545594199800 -0.033565263930140
0.121219648153022 0.096841106817513 -0.032857988426913
0.142070902835937 0.102063409813897 -0.033155999410202
0.322081027169925 0.132349132386102 -0.033251478541899
0.036559573787003 0.155955414453312 -0.033718356965079
-0.091423509129395 0.191040407673786 -0.033177069448392
-0.269123203573801 0.210834780491313 -0.033798662845642
-0.147087453669067 0.228956630265038 -0.033712313660078
-0.061477840295024 0.286360409372486 -0.033563147728198
-0.191251765903011 0.294555017256578 -0.033776786055953
-0.014540856801619 -0.445506025622698 -0.032006361593771
-0.280712458337881 -0.365999136381759 -0.032204740623653
0.101285898446198 -0.342797819556288 -0.032551992716077
-0.058757308618056 -0.292821641101320 -0.032067722423215
-0.286196591515691 -0.248838957688572 -0.032632993102012
-0.160346317608973 -0.092815086545810 -0.031946980069874
-0.124955933350651 -0.084509895607412 -0.031974352278795
-0.169556771786454 -0.063167696696172 -0.032719491336560
-0.201088828549568 -0.035643496454603 -0.032242527314422
0.229688043595880 0.028022904785430 -0.032395393631024
-0.103612629199249 0.040005001743281 -0.032185968257306
0.314974295664957 0.053754020359759 -0.032360783676652
0.229813544426744 0.078163963204336 -0.032116820762318
-0.211342186420728 0.148606493038361 -0.032229066969662
0.245142878620255 0.162077993343474 -0.031930725571427
-0.272175540838677 0.169565013456106 -0.031926674450732
-0.176998520776463 0.194003755179186 -0.032458699535880
-0.280844619695584 0.196757970654714 -0.031994542604334
-0.077281407968829 0.278254340688454 -0.032579250092723
-0.311673889987305 0.342801637115689 -0.032006698704392
0.095942879655291 0.348742763687078 -0.031843555477465
-0.023095106510398 0.382694012777635 -0.032380989752800
-0.148950917025025 -0.157793331421140 -0.031113893534809
0.224710684630381 -0.119518473465189 -0.031405539814348
-0.107199277387864 -0.095646106934993 -0.031020994672979
0.295089353768344 -0.044651376038521 -0.030955137303785
-0.233616277145034 -0.020820538497590 -0.031404692724047
-0.107809222694930 0.050701760233570 -0.031033215792372
-0.096712004665961 0.066613744306710 -0.031663102692640
-0.247904891666306 0.176481868526555 -0.031609405565267
-0.073025491601369 0.183914051046904 -0.031311469245274
0.069869629882234 0.237662406264884 -0.030911931275875
0.136508516208882 0.316590315075237 -0.030916472471706
-0.146873083270213 0.338287182935829 -0.030857028336516
0.175546097057438 -0.369192898494537 -0.029833348136799
0.140950182589543 -0.224783169085755 -0.029841292365997
-0.133497938646684 -0.140744328126265 -0.030207059864478
0.054946826368065 -0.051445209665121 -0.030467540850959
-0.085186821169387 0.008216346871945 -0.030567784946329
0.095963838903891 0.027604993397752 -0.030763375834785
-0.196805184308564 0.032027180920042 -0.030407114301677
-0.182258334122186 0.053223096826948 -0.030461857754395
0.201535543982749 0.109726116924005 -0.030701589868636
-0.233964841083806 0.136468300070409 -0.030707511260466
-0.181472454398531 0.155814697690362 -0.030176851719761
0.088049848394487 0.358931701517198 -0.030242462738327
0.231526596155336 -0.192948531092986 -0.029578350519585
-0.265347865890831 -0.148989976761677 -0.029137814035032
0.183893698738761 -0.140058838351002 -0.028877414043345
-0.114222679267650 -0.131035949727867 -0.029352923715891
-0.236948675878256 -0.043141377829942 -0.029374694427225
-0.174511948854778 -0.008845939721701 -0.029143873697872
0.091506901979984 -0.002515451294943 -0.028843840346485
0.217805027543084 0.006574585319508 -0.029831056370753
0.087275616040844 0.008700627123414 -0.029685317222353
0.270444598359919 0.014534139097114 -0.029504776294181
-0.247758712245643 0.019748849791339 -0.029310718814039
-0.107537972051891 0.025642695733114 -0.029804250160004
-0.186157313753373 0.038310073869363 -0.028897239061058
0.031099103728843 0.066653915210336 -0.029090870907876
0.287446136252032 0.080987499204816 -0.029264761451883
-0.309467210214845 0.116522951140746 -0.029165946873098
0.022625854023274 0.212158352133536 -0.029739990311163
-0.218446764765200 0.281231039293185 -0.029581407882196
0.172924031671406 0.281026697270291 -0.029561253187405
-0.261345994869193 0.375327232818478 -0.029232324303852
-0.054712408849590 0.398243048169120 -0.029400033517825
0.178024321633665 0.434144556110623 -0.029068286513267
-0.178694795795500 -0.406253967911255 -0.028579524244642
0.050108317828041 -0.343981823372818 -0.028146291511214
-0.115447738528299 -0.269464151182602 -0.028678055405766
-0.017601447941088 -0.266727781066344 -0.027892200856406
0.004415002289954 -0.192627857574555 -0.028336488646824
-0.032483832311202 -0.134578009488297 -0.028501382920116
-0.016590551721263 -0.121196911863084 -0.028681212940775
-0.121004035137369 -0.112131051032492 -0.028733472863334
-0.256872044272907 -0.084958827341330 -0.028590412300172
-0.128269165285067 -0.054940734254438 -0.028625265142918
0.317778817977800 -0.053633624146646 -0.028275009824470
-0.293063020246922 0.000384026597047 -0.028039665854294
0.148823290894210 0.047259604312476 -0.028688307482216
-0.116979971456419 0.052936757243269 -0.028576405977687
0.187831343524769 0.102311203369542 -0.028236044534317
-0.136154571155363 0.111726040751773 -0.027952447018102
-0.129151008613401 0.139796450389073 -0.028234427317954
-0.046066497073327 0.190069221153448 -0.027970488741381
0.184153068613625 0.284524571694901 -0.028365814838448
-0.065964267174653 0.288971095174741 -0.028256051003539
-0.024632014778750 0.450584925968924 -0.028080657586243
-0.139609221218131 -0.373504105532971 -0.027517230982577
-0.138102820020915 -0.326236647658102 -0.027748066285938
-0.048288839328104 -0.259095245755106 -0.027119450412995
-0.208247048820827 -0.222087306495202 -0.027193396567263
-0.217357801356721 -0.173082136008508 -0.027257645468409
0.287847704693575 -0.161518344253683 -0.027133572203843
0.100969067632378 -0.154508262414598 -0.027101290951048
-0.165324973159123 -0.146464286751725 -0.027462356887464
-0.187335420945580 -0.102821897470524 -0.027237393220584
-0.148061798661242 -0.071496012289790 -0.027094607466844
-0.016326585786366 -0.039207861428264 -0.027042556198138
0.102704392538181 -0.031501142206586 -0.027628344688664
-0.064005942840743 -0.016150363837432 -0.026886031232785
-0.233993165002781 0.003622406516151 -0.027424126036970
0.005080478919685 0.029532964771082 -0.027096876820215
-0.174187360093620 0.069063027286849 -0.027248945840094
0.183363960365140 0.083020041889505 -0.027322536061641
-0.221615836394764 0.107665314881790 -0.027738904908108
-0.298217402511476 0.158945602372458 -0.027728426224485
0.159718824318293 0.186747843617009 -0.027236176689189
-0.252884449907542 0.196465692574726 -0.027091145311096
-0.153550421039501 0.219385479560906 -0.026888455642845
-0.252739002567038 0.317159679997203 -0.027222053958474
-0.193488160380148 0.320366219675681 -0.027459361691312
0.240132245782428 -0.145820993054873 -0.026532028797703
-0.237005408020151 -0.135426742119347 -0.026033379250407
0.173536780011978 -0.082557154934402 -0.026761114035816
-0.164876224930046 -0.063227851424280 -0.026829352560958
0.202027899931055 -0.063379374011937 -0.026201326228261
0.002278657289443 -0.007711311022465 -0.026013785275958
-0.080638550288962 0.040871210006101 -0.025854332983748
0.182637887596050 0.042340765179890 -0.026151913449775
-0.143064956107983 0.054098512151137 -0.026433836604993
-0.139929495611893 0.058855568208824 -0.026337598596160
0.156041815629440 0.064003659897010 -0.026748134896317
-0.034641301577381 0.069070524383911 -0.026788364221545
-0.201961854250202 0.072633714170960 -0.026116369663321
-0.164330640865208 0.074555549087583 -0.026423791359212
0.051810574867597 0.074480222987214 -0.026002935126328
-0.067613396289536 0.370937760994643 -0.026261566220669
-0.035164293495048 -0.414765135014779 -0.024973147235860
-0.023047910568098 -0.369131819695439 -0.025320271165953
0.190516377508404 -0.329746217184793 -0.025234188648400
-0.059031262002922 -0.209029619398319 -0.024896945684373
0.125658330515732 -0.200867940725899 -0.024856539763725
-0.120496515557630 -0.150190595565559 -0.025042367851225
0.264647810934337 -0.070924035464450 -0.025348375934939
0.221557938077493 -0.047099181787031 -0.024915929098401
-0.229759442601642 -0.025448057341478 -0.025638623223021
-0.222499855448774 0.018658700894646 -0.024905869193947
0.174428391564370 0.066772526335591 -0.025319494470383
0.183945815163256 0.081242141998530 -0.025682922114060
0.180576498708224 0.132969756839720 -0.025378002900057
0.188690191776992 0.183563095100392 -0.025404061710696
-0.234316257673773 0.285647272774953 -0.025729797461743
-0.269815863753958 0.361995651444777 -0.024859225702180
0.166679900708156 -0.479581712800709 -0.023882191435193
0.066499251392465 -0.341759230189586 -0.024006396190814
-0.264171712719169 -0.304129060644610 -0.024732145055496
-0.179901458039306 -0.052963392273957 -0.024819429285742
-0.199675007050968 -0.045109541772035 -0.024021352517788
0.279711422371130 -0.028760318329543 -0.024244115699597
-0.219332020839444 -0.018675309787630 -0.024257690877191
0.079744072138076 0.003661415035085 -0.024466698383482
0.241382876496813 0.007855146888424 -0.024228480562561
-0.200047206662972 0.032453362547778 -0.024568077156780
-0.192894394837913 0.043896535751893 -0.023911041161477
0.099052377512270 0.081699393897325 -0.024494652155927
-0.118083577896580 0.121204439379588 -0.024645983851834
-0.016815822076368 0.121366397805704 -0.024793887421106
0.145939601064351 0.121374983138904 -0.024102250522078
0.050689811103710 0.158691130449769 -0.024515582066161
0.237661450027545 0.354489996839060 -0.024734072370896
-0.317031513272296 -0.450559790309395 -0.022919269239735
-0.209569900172351 -0.406293786470288 -0.023462032057399
-0.069273298501655 -0.226576570475036 -0.022938726039479
-0.077255359586926 -0.162908576425172 -0.023523606477809
0.193117872914939 -0.153361683263912 -0.023677788909708
0.001471931672543 -0.145445480980771 -0.023248685714114
-0.287689947737173 -0.126400551288107 -0.023267980956621
-0.132435458769744 -0.055343605873973 -0.023428352679036
-0.084567994284069 -0.049626646004067 -0.023692905439281
0.061544210666929 -0.034869717551760 -0.023421275436699
0.048032597191209 -0.014262074147758 -0.023121910095048
-0.117439370029595 0.043801659320183 -0.023348549811518
0.091213917927354 0.083228374199447 -0.023342527492001
0.080985178479915 0.086553144545533 -0.023096164947760
-0.083512255241761 0.150988240265174 -0.023819089915683
-0.023848052137564 0.164509131765455 -0.023071784974685
-0.074098085439328 0.168015129946944 -0.023086684285977
-0.104069489138012 0.174669966058739 -0.023820153687940
0.267960553464688 0.175395942024767 -0.023346214593706
-0.251650038044793 0.239130961662530 -0.023626342739006
0.173338931392908 0.288173272560953 -0.023778095378208
0.145413871136586 0.358502667759023 -0.023627055404009
-0.060370894994433 0.404421993912712 -0.023652288120805
0.224637872215084 0.474737274867853 -0.022899798244272
0.103393208927221 -0.290413880169104 -0.022661699023989
-0.234307133157938 -0.283296936820621 -0.021963430473363
0.255550244989215 -0.223262484246864 -0.022183644722744
-0.267202654403420 -0.096168167817199 -0.021907215324029
0.022638722331322 -0.089742667259146 -0.022634958457351
0.151815406489266 -0.073466527872423 -0.022524488137980
0.111333505709745 -0.072481797840889 -0.022757660094181
-0.156879974626484 -0.067874517892567 -0.021984511552218
0.211679817295258 -0.064642079359706 -0.022190378394758
0.305640972981960 -0.052420390076892 -0.022653214147387
0.279384957850780 -0.049932901422677 -0.022738103465355
-0.111033409676549 -0.030184350476586 -0.022822695717731
-0.215472788856041 0.036201189188900 -0.022212981366434
-0.059320717500671 0.092562331406764 -0.022805833026138
0.128061738053691 0.124243427852385 -0.022585938227372
-0.211358113716240 0.219770799206014 -0.022193979036653
0.240686702942264 0.277808778630986 -0.021941774877199
0.191451830362304 0.332144434989150 -0.022830104349821
0.299631022988288 0.344874065462065 -0.021908696883756
-0.294111310104301 0.421568673875038 -0.022028722676835
0.081098044601481 -0.125331692247367 -0.021477276373734
0.195993236751341 -0.124897735773123 -0.021145410368444
-0.097060348225464 -0.116720188941039 -0.021222267069623
0.103508611203026 -0.113448715179575 -0.021586146868324
-0.176544577382792 -0.073534126422483 -0.021036126282505
-0.210397000723233 -0.042775021776139 -0.021805936300543
-0.056644999495203 -0.042550396493609 -0.021029627587528
0.279351658409237 -0.030023887073763 -0.021444362146223
-0.203542686086669 0.038145202375338 -0.021102735972243
0.227568515395258 0.068329862060893 -0.021177674538952
-0.076561950058900 0.080972753818153 -0.021442382440493
-0.208749127519530 0.085220104243216 -0.021734530921207
0.145848247654220 0.101878483244484 -0.021124054086233
-0.202709076204960 0.107025395200904 -0.021507463192352
0.048270811911081 0.325781568475663 -0.021026113055321
-0.061181630433452 0.410766134089355 -0.021379394142779
0.157880708339969 0.417353612309500 -0.021774627177360
-0.158975200149651 0.421098163700607 -0.021179392881289
-0.193538072459367 0.460446272371412 -0.021305430741177
-0.151133021506029 -0.270727616418924 -0.020511011111100
-0.317457170291878 -0.260017849035071 -0.020526204718882
0.182016701325822 -0.145818406403099 -0.019874836371672
-0.111561686004094 -0.137199874861244 -0.019923906278878
-0.099761258818253 -0.134478283216161 -0.020511778640587
0.254725586905863 -0.114980310816464 -0.020777373897405
0.069857675334415 0.003883599845900 -0.019954149135575
-0.150159930595204 0.055929726699716 -0.019892480857507
0.124768695097086 0.055532681951689 -0.020524387654592
-0.149683911767077 0.058090592198385 -0.020491954166482
-0.114007468763595 0.058533536149664 -0.019838951433975
-0.227174033877055 0.128163331432313 -0.020486640741857
-0.154794715967611 0.130114442022923 -0.020654472701780
0.159629399044156 0.295539396610527 -0.020685339250452
-0.153079245592795 0.421840710748236 -0.020706351296338
0.155942111402208 -0.295399670361340 -0.019477154688907
0.049801456991468 -0.097166536558761 -0.019001676510353
-0.105490028884778 -0.087663453280680 -0.019065702054722
0.159409057699352 -0.047128706999887 -0.019706003434362
0.244236230258771 -0.032469158194083 -0.019464072026068
0.098390560227603 -0.010113753213900 -0.019698438369130
0.139947220194508 0.066347885515181 -0.019514385014212
-0.165916009446802 0.072791299543801 -0.018957613545152
0.147628768862793 0.082228332221827 -0.019609717965943
0.158098788852336 0.117038103253608 -0.019662432995231
-0.240627316232590 0.148017776100957 -0.019795306707693
-0.145442327112566 0.160376471119847 -0.018847340898798
-0.132924979198266 0.218952569055435 -0.019214130458746
0.226406986122345 0.239007904093445 -0.019529217824028
0.019218153004434 0.283157398795141 -0.019530012105113
-0.131863713306970 0.437710468749003 -0.019817401150096
0.174708605448162 -0.479518590771838 -0.018686064909007
0.047470829667973 -0.426903403104080 -0.017989621768318
0.108943588086461 -0.396330038075346 -0.017901835935165
-0.176031607487825 -0.246228202413431 -0.018011188629212
0.286986968583797 -0.213446988473073 -0.018511346099437
0.294735348600100 -0.164779494503152 -0.018193858590632
-0.277292426004941 -0.117229092219731 -0.017863367413000
-0.063838887519526 -0.083684235121935 -0.018505554238174
-0.167118406012080 -0.082815519207713 -0.018147047085837
-0.235483986875752 -0.067589325093726 -0.018431538985256
-0.173042641292950 -0.050100988960053 -0.017871630719388
-0.266571093452865 -0.020321057043155 -0.018604088272936
-0.020600301981729 0.039376828454035 -0.017870279413878
0.174651143171804 0.048651571607962 -0.018039141029378
0.020737642296349 0.070779814825337 -0.018534059059693
0.293565768104812 0.087844552067122 -0.018402274263431
-0.192209392920797 0.107828053224652 -0.018683765387109
-0.230942140471342 0.110547801961022 -0.018204448128593
-0.168981172647754 0.123208161389092 -0.018484074984058
-0.142429201487009 0.122859531774469 -0.018122630540926
0.033422963623752 0.225675561787642 -0.017864367456275
0.318397228038892 0.236548778650720 -0.018247874078268
0.168769097832997 -0.472435407421865 -0.017107626647767
-0.223245498151435 -0.406316214719422 -0.016968941152188
0.093577265134418 -0.244043085386853 -0.017683964156707
0.188544822794971 -0.201435774705980 -0.016939669358054
-0.066714354646181 -0.157687023919182 -0.017620074428879
-0.108385595900103 -0.070676558784718 -0.017397278180024
0.188972610462900 -0.068857485104267 -0.017075354565660
0.000311511781579 -0.061244992588267 -0.017732520238620
-0.202756881529924 0.036507810922904 -0.017064543879619
0.189030910217453 0.056623445038347 -0.017105421956287
0.162742761037255 0.080971073471552 -0.017119715688093
0.024508648480088 0.096528505640806 -0.017052636938454
0.302096607879568 0.152182792445611 -0.016889306845908
0.037508762021936 0.163936836761129 -0.017135874797111
0.258755348409296 0.170803500234531 -0.017811831493069
0.093828894880837 0.173586507995658 -0.016935822145316
-0.214545439887723 0.263426725150406 -0.017820234695151
-0.148624770838573 0.364911415973300 -0.016988451286437
-0.112031486020888 0.388373853802947 -0.017761844403154
-0.138594416968615 0.411193725303804 -0.017181387321875
0.231005095639408 0.461652667387058 -0.016834705539991
0.178484474346120 -0.348608170001861 -0.016451352870595
0.189462634916975 -0.306936434249785 -0.016542216324720
-0.064077775478941 -0.248281856719351 -0.016045367519471
0.234167883665550 -0.169773938264517 -0.016518844917330
0.068782262804626 -0.137607885336539 -0.016196791494183
-0.009924387618619 -0.114966472529351 -0.016351155074824
0.092480438283335 -0.094732831599788 -0.015903834779205
0.029484937331907 -0.083833878282556 -0.016153335890986
-0.224412771087190 -0.061406726445915 -0.016738563527438
-0.128040551301273 -0.047823929389405 -0.016768975519074
0.056487362740778 -0.010311293399117 -0.016097643515601
0.180371779453495 0.050097723555974 -0.016811247713730
0.153152287469430 0.054233722557826 -0.016509945566061
0.293539899016690 0.126718826683466 -0.016226947103502
0.096773074577675 0.177351248769758 -0.016298371484659
0.189809384683718 0.191819862039902 -0.016068395034732
-0.189230955300671 0.290151578845040 -0.016429775998032
0.119116584639124 0.411572649628685 -0.015961279224573
-0.046419881538071 -0.454565815038175 -0.015111086657447
0.133213673793704 -0.409728742363695 -0.015658145179930
0.065486517326089 -0.386583212192283 -0.015235299664171
0.050762851387524 -0.343111526668477 -0.015788936459943
0.183352149567637 -0.270038359942941 -0.015016655339837
-0.171248060541184 -0.237356785738221 -0.014889705404723
0.043540103263876 -0.203354822606617 -0.015242477167782
0.104303032435659 -0.080279249080981 -0.015597766575367
-0.084105050642830 -0.047678827288880 -0.015578642451281
-0.239864604912796 -0.040144453587354 -0.014999009495063
-0.095364552779355 -0.032893582699176 -0.015339192749713
0.212207252885555 -0.001368936445721 -0.015184073194402
-0.098930244574896 0.007544357674728 -0.015306165079513
-0.293030477069975 0.012903109376643 -0.015240899426971
-0.004580185643175 0.023899228479405 -0.015587206819218
-0.175620194185953 0.043032442672462 -0.014881079475735
-0.174613490079270 0.049983547353409 -0.015563794780624
0.007120493790447 0.067214454841407 -0.015320600766036
0.286827628240081 0.079144361445250 -0.015823733666194
0.026073035291002 0.089534689891584 -0.015164029319241
-0.268039208602029 0.127176210881850 -0.015455939910923
-0.000019803749746 0.127795691391234 -0.015517839409714
-0.082604692806174 0.182190507513178 -0.014934785287954
-0.059282657312306 0.387822480206782 -0.015705305904857
0.177746206625383 -0.363897558091008 -0.014383498570916
0.070972054054019 -0.285821331771226 -0.014157379825940
-0.167823894439410 -0.061661122243158 -0.014636601335860
0.155008673036218 -0.051942145126923 -0.014784902311936
0.112558566325068 -0.050883410576934 -0.013973058275933
-0.176639302784586 -0.041648511792794 -0.014039794421737
0.211973443446055 -0.010862822866564 -0.014281600751719
-0.322038412635989 0.019828741365745 -0.014465965357602
-0.215648705947421 0.034253076537437 -0.013983042533776
-0.060177168036060 0.036249535093076 -0.014587567756435
0.173858582840555 0.035942030554672 -0.013843151580561
0.279106699572902 0.055486345360325 -0.014295488264375
0.162030885239578 0.075742417790611 -0.014001096050846
-0.224987282630537 0.140046765295559 -0.013997534402072
-0.242274478031211 0.173423909632227 -0.014507525730193
-0.072530036554232 0.309735814210671 -0.014827848952891
-0.093801407320872 0.331089685142705 -0.014373066544126
0.066766463688286 0.424902453107873 -0.014100414657778
-0.211863338620372 -0.174962947369215 -0.013778364517968
0.268547025330380 -0.152207908765806 -0.013154496671949
0.185067653228871 -0.051905630967122 -0.013685862706043
0.046712151079160 -0.042622570107419 -0.013182819491079
0.098133432850610 -0.018945967989295 -0.013171980763897
-0.097603321531315 -0.009937297162909 -0.013329495301690
-0.231767404079181 -0.007351466521291 -0.013438670547141
-0.326108968818146 -0.002077087448245 -0.012975857934342
-0.027496627115892 0.011059501536204 -0.013393807841650
-0.120926803254548 0.038518996455990 -0.013183884284003
0.135090426374505 0.047785185593617 -0.013015766055643
-0.173186361852658 0.066002303270511 -0.013419297253749
-0.126435041264006 0.100829116959292 -0.013497847697482
-0.188121478681086 0.105979557777632 -0.013308961416555
-0.208889707747797 0.110240753489739 -0.012860450503999
-0.074371410451067 0.114318420408521 -0.013521787191407
-0.011680014053988 0.120357241682252 -0.013711459923423
0.137251490123042 0.168042908266966 -0.013407116609542
-0.313883903206447 0.191654289518738 -0.013028227007142
-0.321203035182455 0.344789474383141 -0.013700240625613
-0.068239927061157 0.412400612727297 -0.013090110540731
0.004245779963661 0.432414680189349 -0.013272234041314
-0.188227853393154 -0.292968717802300 -0.012701441098287
-0.220364354442058 -0.278966900670765 -0.012765090345156
-0.223555505900134 -0.090711888034387 -0.012008851547316
0.123425525847887 -0.088539447527515 -0.012290519475934
-0.138063052418828 -0.067354989586777 -0.012781098122000
0.179591363388283 -0.059177132790911 -0.011947645936841
-0.175870798993187 -0.042125726120673 -0.012726957839036
0.053361777630301 -0.026023375435998 -0.012791079969908
-0.228222150657335 -0.020748910125475 -0.011872012300459
-0.251994817271016 -0.017593914063997 -0.012728060566707
0.109011368228555 0.004477785313422 -0.012219081688322
-0.089711635459570 0.017728170847618 -0.012542296496204
-0.148227018839417 0.041399993159727 -0.012099308818088
-0.199913371915139 0.043845558879240 -0.011907084952531
0.205118517188869 0.053095406703809 -0.012461854914603
-0.168881431848681 0.061570460042550 -0.012314575824373
0.203968294267543 0.073765191659600 -0.012657252848458
0.006664972494799 0.097046857530064 -0.011853339880127
0.233899899594167 0.104493834787626 -0.012444375835720
-0.231411123017927 0.146648888294706 -0.012435478670533
-0.268322544225840 0.186242135415443 -0.012810910442579
0.216515342724871 0.242725273728504 -0.012154455384914
0.003184327263439 0.256057062719558 -0.012156744353588
-0.080830203301862 0.377473662110092 -0.012143133877757
-0.008806107182756 0.416005909594942 -0.011979824413555
0.026619956647128 -0.314978779035079 -0.010861954549962
0.215689683243552 -0.156872855731081 -0.011502833624908
-0.247089525836526 -0.123344759377818 -0.011779178175880
-0.157809120444742 -0.114567102965952 -0.011815098823985
-0.319371046111931 -0.096462007613486 -0.011240842829267
-0.219756557814626 -0.075274126909724 -0.011082914033206
0.135717642724842 -0.070278214270641 -0.010938157841018
-0.168975987258306 -0.069484203410181 -0.011515546993747
0.100082798144959 -0.062572179464470 -0.010961771626246
-0.008863550009304 0.018149572206823 -0.011622799486303
0.070571869380950 0.030780405126327 -0.011814521395891
-0.129530541715590 0.053083062371359 -0.011499113279187
-0.183527643933992 0.245508212068669 -0.011382630935830
0.020714427555959 0.295286968805683 -0.011635415312413
-0.163600796141052 0.298448173046922 -0.011367913269896
-0.132202928551363 0.387286607529596 -0.011373696332845
0.113432850080769 -0.264669796883367 -0.009915571212839
-0.224150454556223 -0.200956538345559 -0.010232992634797
0.084968075244645 -0.195409196687023 -0.010768931274244
0.231722082196116 -0.169614301484418 -0.010301545760639
-0.166297027332892 -0.150331354970347 -0.010324667704206
-0.064603592986277 -0.138944021187903 -0.010210731583408
-0.175491307422107 -0.105409107644285 -0.009986792638495
-0.111534675890332 -0.100559371210881 -0.010228517515376
-0.278124879682346 0.019644299269904 -0.010341204058742
-0.093231955298405 0.020961312176149 -0.010419198175095
-0.247739920448383 0.023720233738099 -0.009969066349462
-0.025954888341924 0.037172918546731 -0.010679237633253
0.252357557328097 0.054875143588156 -0.010228541707719
-0.157524342805377 0.070963968940557 -0.010493312638594
-0.040747625716362 0.113106823820843 -0.010823927994447
-0.300880498421859 0.122798308226518 -0.010809600742306
-0.051951576489108 0.246555295893080 -0.010669042802785
0.265071419752334 0.305407971829113 -0.010584522992428
-0.191651275817733 0.337961110170724 -0.010465185002007
-0.116393867799301 -0.476734400932790 -0.008892931445660
0.286541585668355 -0.188970501411467 -0.008987632970003
0.030906097371585 -0.162589626689019 -0.009203149354704
-0.316366462161125 -0.030652991877251 -0.009618751916892
0.202040739862021 -0.015326144099285 -0.009190692703262
-0.096542511444251 0.014310770292014 -0.008834511109810
-0.001290999933557 0.019098849937947 -0.009334923280739
0.000497071337052 0.020935847809323 -0.009254717937900
-0.205669126557570 0.037737335337562 -0.009727461769940
0.024222618085670 0.083495542327326 -0.009671796166494
0.291769496182349 0.113617751469417 -0.008942602630082
0.078482275218608 0.134960466397800 -0.009659324891115
-0.158762425999067 0.249611615228780 -0.009510717656751
-0.166626869552729 0.335124667304314 -0.009304409786839
0.129590601647142 -0.221883585130074 -0.008338111397901
-0.024438751340006 -0.210410478664640 -0.008420688600564
-0.222620441145878 -0.201928424211074 -0.008253676918661
-0.001549206425253 -0.195257130191606 -0.008763232030638
-0.302521038117755 -0.163549528041953 -0.008773711625894
-0.189905248699132 -0.103425057539455 -0.007985689070374
0.119121700228436 -0.033518667771268 -0.008244138945979
0.114140803540813 -0.031134082625045 -0.008588349812147
0.125850786354461 -0.030981403351091 -0.008362160838678
0.113795995215091 -0.024371889279874 -0.008138696669292
0.105356464625997 -0.022625407370896 -0.008582793753302
-0.083469065452521 0.000975678776950 -0.008765435426956
-0.313208372077139 0.032872894725836 -0.008333946287138
0.098115782556283 0.055525912055890 -0.008712481263872
0.060359581232580 0.058446425848208 -0.008416923949374
0.183927090857069 0.066285412131105 -0.007933831408895
0.260810577960187 0.068587847735478 -0.008450218368241
0.280843034127382 0.076000245674578 -0.008606916199854
-0.066771008831428 0.099411252182153 -0.008583480697669
0.188657118601405 0.332479218964909 -0.008464166424511
-0.071396650561634 0.398018800948965 -0.007918892222959
0.240612851715760 0.465593020455230 -0.008028694969587
-0.144353188181909 -0.476235472653289 -0.007712820373753
0.313265874771668 -0.420623677815956 -0.007037341604406
-0.027772672820259 -0.319079919982096 -0.007823965005876
-0.047279291107740 -0.275556497285181 -0.007653376453411
-0.203144955814283 -0.103684077867728 -0.007200285904287
-0.177292110127988 -0.095101641491268 -0.007603667551506
0.067818257791726 -0.084797369812809 -0.007401919035474
-0.208368751634955 -0.045286658285579 -0.007287854197143
-0.194424914087866 -0.041512430437829 -0.006950650672528
-0.108272925746238 -0.028741666095364 -0.007686983382419
0.290075500136942 -0.010680922681704 -0.007076546775411
-0.092549262660603 0.024647943123834 -0.007481026492758
0.077428711813604 0.025367018968263 -0.007427571711873
0.102791208370380 0.026238823544626 -0.007686512301552
0.113603892415198 0.037747873406521 -0.007640203207937
0.105951190308868 0.055687491409873 -0.007174650588063
-0.067148593007391 0.073434937151186 -0.007322929726518
0.234217358239729 0.099312446122579 -0.007675274273351
-0.085020133602461 0.127567517297206 -0.007325087180020
0.139547524708878 0.169364679529044 -0.007344325809786
-0.105759716704085 0.229197158859846 -0.007155823889175
-0.264683385365113 0.315704283160644 -0.007372958641638
0.057854502590325 0.315620014449296 -0.007335555726650
0.121874833371584 0.363891600297231 -0.007720148836254
-0.112709618052129 0.368807746558861 -0.007691143007103
0.138235212201775 -0.478580134556108 -0.006219158803064
-0.038568618305392 -0.437877028143968 -0.006623015248948
0.076879568203244 -0.209932651071818 -0.006565913006333
-0.026911707562239 -0.124295547260205 -0.006450910878258
-0.190875139725121 -0.100442351095518 -0.006147576441426
-0.196787164996479 -0.064438813377426 -0.006326346547128
0.155756127654083 -0.054396053640275 -0.005901865055755
0.093964578747810 -0.010262641563071 -0.006612699067159
0.107676687018109 -0.008256188129935 -0.006360215766290
-0.230767167533871 0.004598900419062 -0.005858981943343
-0.133911427728892 0.034563607189884 -0.006069049512616
-0.157001189057114 0.037149526762283 -0.006456888809366
-0.124205243340141 0.062416689185134 -0.005899127359833
0.108765872051723 0.075370859067035 -0.006688196505706
0.274905043702148 0.116047276473824 -0.006620443482795
-0.146992583960275 0.294695217317285 -0.006424763455729
0.326094072289681 0.294936712275001 -0.005961035251592
0.003044164496359 -0.447485454046984 -0.005511623006593
0.086859469659627 -0.186643605212003 -0.005760333190553
-0.182146951917991 -0.174229081720603 -0.004876958964421
0.144782301343061 -0.125004717183764 -0.005194097189595
-0.265596010923100 -0.123522573704881 -0.005325172728794
-0.118187868224847 -0.119903092648382 -0.005817717414775
0.121720181415877 -0.071841164639073 -0.005340082883847
0.238753350809018 -0.050704140994437 -0.005513536027898
-0.175308768149898 -0.042127968584279 -0.004873817068199
-0.192341954330468 -0.015185090821865 -0.005368095388750
0.219499794291063 0.028553711328894 -0.005818412993097
-0.204262460916754 0.042220700816813 -0.004994041519398
-0.071231438260156 0.041480011417126 -0.005222654267944
0.070180049668615 0.060078024653089 -0.005414468298902
-0.081949754966224 0.098880286711661 -0.005134795470022
0.073134757435554 0.106857775901600 -0.005725573696435
0.135582615792791 0.122074991871170 -0.005489058221408
0.165952645783749 0.205209527279866 -0.005476411719242
-0.017018444123212 0.206583389142184 -0.004963730641408
-0.251573595977500 0.244293902697455 -0.005379530818210
0.034805859387686 -0.447213663946830 -0.004225981605687
0.003185698844152 -0.304543697384920 -0.004463955786347
-0.060580547985394 -0.222170981040101 -0.004373937656176
-0.268369745302688 -0.148784612785463 -0.003881534391384
-0.260187532337715 -0.087431628530825 -0.004256614637676
0.158206064455007 -0.057536956726048 -0.004298463076815
0.083411881879591 -0.051486021155067 -0.003961400997151
0.232007548108005 -0.018817361631248 -0.004111300763842
-0.300945032118526 0.009053427471520 -0.004251299991850
-0.077632438566038 0.027985077704858 -0.004575779961199
0.263785726878835 0.028060942437724 -0.003954159333173
0.214564272876571 0.030673884768203 -0.004681120557026
0.137111753070022 0.033711178987801 -0.004236804567766
-0.331529294185180 0.039401152731558 -0.004115119901177
0.098663915184761 0.040454882089612 -0.004379555582084
-0.148838841776638 0.049567813476346 -0.004533376236475
-0.219940010828158 0.090520460783959 -0.004442833170297
0.171206065679021 0.090648807320824 -0.004416109838840
-0.122182787972014 0.122536834812250 -0.003976973494434
0.058589216910779 0.127139613558031 -0.004140252016842
-0.307238719994042 0.272350799626363 -0.004410011720006
0.092383920314840 0.471780538957062 -0.004488885795053
0.089067616101179 -0.398983555865475 -0.003309776362445
0.178709216300231 -0.276944853263361 -0.003128702516121
0.028015148596423 -0.120196959326869 -0.003387047776931
0.311086228337986 -0.103190821926381 -0.003228050590212
0.086136556527928 -0.055064498124999 -0.003255463753067
-0.092384949728855 0.003245778112444 -0.003396986689754
0.272545576242513 0.016815322226946 -0.003253237213885
0.208297867509589 0.042458492632663 -0.003359229719066
-0.135697453367747 0.091231052267139 -0.003115584202613
0.122482419399606 0.119758067501991 -0.003367158580181
0.309691866785650 0.126508581223094 -0.002918099428123
-0.093996287663021 0.157977895179295 -0.003818342241549
0.167533725664463 0.430595196697130 -0.003124943922385
-0.272216922346224 0.446137352260024 -0.002892982137375
0.220554209463401 0.471860053143199 -0.003365207497615
0.178694856070190 -0.347395967253080 -0.002793344799543
0.291051802856403 -0.244620251942323 -0.002292834183346
0.312370564291552 -0.220472742154695 -0.001929759940218
0.279433104476710 -0.197009356608379 -0.002831129047902
0.239939234227330 -0.100483301118673 -0.002200657406116
-0.230330698417034 -0.099343894587049 -0.002317168602986
0.105036585772489 -0.061712761614906 -0.002597574841053
-0.127362017990042 -0.059783058442306 -0.002571067082675
0.249925395225925 -0.054365171191625 -0.002009172245619
-0.117987926896667 -0.035362030504804 -0.002524484890058
0.141620606450819 -0.030366995931489 -0.002763542493707
-0.023343760712947 -0.020994826521792 -0.002040529646450
0.105615106489836 -0.012492835553024 -0.002700658913876
-0.087746407975680 -0.004434933261698 -0.002566491042323
-0.203126306782661 -0.002725582336583 -0.002245746080037
-0.255021264516066 -0.000756527700685 -0.002776603881842
0.163246145378219 0.032175487111287 -0.002745432937143
-0.141505486521561 0.080790414300325 -0.002065452113184
0.031958113535104 0.149181478525685 -0.002668310720823
-0.000194264421574 0.182261301044480 -0.002387017999004
0.186719348870594 0.473774648082712 -0.002690932690905
-0.078186247636372 -0.117974756012490 -0.001365851428441
0.184213811566730 -0.117257841041490 -0.001283660828893
-0.113637533963674 -0.082704957349475 -0.001148664710954
0.222301325576300 -0.047472069905842 -0.001134829455948
0.116535514327203 -0.043357723987424 -0.001700504170734
-0.150006333346687 -0.030081795726572 -0.001062591397167
-0.186566362473786 -0.014320102240991 -0.001563435848322
-0.208360113780613 -0.009318020625823 -0.001011992328985
0.103766757917196 -0.001110593704054 -0.001004553155618
0.178371559415761 0.037419618177846 -0.001324470058229
0.145486369977777 0.111311246538731 -0.001059449137464
-0.222717684486553 0.167056608144781 -0.001387458754605
0.071824136509896 0.171434504378130 -0.001793138226795
-0.295225123803994 0.173669779844183 -0.001343245150716
0.059125694213954 0.187610989140349 -0.000894122579346
0.013200754532684 0.218006507854501 -0.001478635010071
-0.079643610498562 0.253335041138598 -0.001339929386292
-0.115056857156025 0.315183260945404 -0.001594757773985
-0.217583420623638 -0.287874067477171 -0.000825099253901
0.079080090154522 -0.280454385848658 -0.000565923294829
-0.315941171656089 -0.258938134254843 -0.000402716899764
-0.165299128318392 -0.169474236721557 -0.000486262403085
-0.188948382740128 -0.083513764178169 -0.000587755780041
0.015748144376013 -0.072585841372488 -0.000743271344932
-0.084460456706647 -0.009820504528553 0.000072258217678
-0.247398813744756 0.058905029450492 -0.000119221599410
-0.220178620788125 0.103716349819436 -0.000469499505767
0.208118545618308 0.108130021261878 -0.000413596500200
0.320739000874074 0.158327577797685 -0.000613034755066
-0.195111166515794 0.229629332060048 -0.000190337329413
-0.176866216374601 0.270995142093159 -0.000691680134602
0.277741917609956 0.355522517839200 -0.000304934205732
0.049746275412458 -0.467038922599888 0.001013328820781
-0.080423982539344 -0.403091364199373 0.000556958913543
-0.056659333471234 -0.295166436476152 0.000441717614969
-0.062379342371025 -0.283649088526267 0.001002453542694
-0.305220748434769 -0.197551359712131 0.001041484708616
-0.311997480746248 -0.182305137237022 0.000427186622223
-0.062548638966032 -0.122860988831464 0.000508973723763
-0.053823711013738 -0.078644119156869 0.000977702905272
-0.184836536407863 -0.040257943233062 0.000241462670003
-0.219051890189628 -0.026632758441102 0.000632540945058
-0.125938387513446 0.011839617041536 0.000957082388216
-0.064281230017478 0.040038438638431 0.000966454122333
0.043119743211593 0.071438524106770 0.000464847557765
-0.199498284474014 0.084435107552297 0.000906602034971
0.029334114690316 0.260211438209034 0.000975432118113
-0.203582311508854 0.465662673823883 0.000960451044288
0.136423953187253 -0.430665259535633 0.002063244540067
0.175704621906449 -0.142667397225737 0.001304103631411
-0.251922665778759 -0.081932605348644 0.001837818966190
0.082382212999026 -0.062692882133423 0.001299882363483
-0.290965250391662 -0.055668545505425 0.001433784870016
0.148834301804975 -0.041597763341851 0.001990310628220
0.173234289852869 -0.022300738881673 0.001840394949329
0.195410825479893 -0.013590209728923 0.001258650058040
0.172159515167522 0.008768651473414 0.001524181727930
0.172834147339536 0.017992468240898 0.001253042838968
-0.144327501007008 0.103176695512513 0.001880486643108
0.045163772810528 0.140264505372879 0.001455995425842
0.305830563398423 0.153272224475475 0.002137976727272
-0.152458130597670 0.187358149796493 0.001333909551453
0.054887472494943 0.212482145458702 0.002146098619374
-0.020281581221032 0.244845865918184 0.001705219580471
0.253519262001043 0.289602268896603 0.001500401982949
0.043568283781821 0.292059654413069 0.002143046708857
0.098195334060141 0.380728225175297 0.001692295651407
0.271912142389835 -0.364334366840040 0.002915400135038
-0.168676237500158 -0.339167852912452 0.002249899536525
0.185932794182436 -0.336604836043890 0.002849267188524
0.099288329964384 -0.169178349914192 0.002953834338159
0.234728343854672 -0.142100157900259 0.002759922168153
0.017773011232694 -0.117583185187351 0.003117825154891
0.153585684320898 -0.094933739000599 0.002858945077943
-0.307410911050686 -0.093104586179630 0.002797594857914
0.136941408275723 -0.070969536315925 0.002940494927921
-0.129325679138145 -0.065989086300475 0.002618537892476
-0.153424728339324 -0.056160434724746 0.002887422851335
0.132158708198006 -0.020513475477806 0.002808870548767
0.171267083154894 -0.009114554183685 0.002805289097112
0.185550779048699 -0.005779931013660 0.002958770686419
0.109913114799363 -0.000961639767398 0.002520812193125
0.017606226811487 0.006142557120566 0.002689577278416
-0.158637306024895 0.029942579923522 0.002925779711347
-0.140592222359539 0.032353463969090 0.002758900370780
0.159784625023823 0.080369884518016 0.002457312726322
-0.320217452700323 0.446096578541430 0.002447569771500
-0.070982701705654 -0.199344664688849 0.003585613544077
-0.184332080733721 -0.139946803606316 0.003174183355402
0.273406963021532 -0.091947250231160 0.004070609198673
0.093332107212722 -0.078787989112244 0.003393436224523
-0.162988936000650 -0.051192640332927 0.003877110765382
-0.132934945235401 -0.001355117021981 0.003426909931517
0.217689496285700 0.013419953101860 0.003601869303033
0.242784114520727 0.044937294978431 0.003898069835694
-0.326465320969461 0.045650902266165 0.003906576269890
0.187115436846348 0.049224377076107 0.003449731373741
-0.162925659000126 0.053043555348986 0.003950944154034
-0.325578296524744 0.075276932689613 0.003460455809997
-0.148728336844804 0.076548677504388 0.003293883536757
