# This PCD file was generated using the MATLAB® pcwrite function
# from Computer Vision Toolbox®.
# .PCD v.7 - Point Cloud Data file format
VERSION .7
FIELDS x y z
SIZE 8 8 8
TYPE F F F
COUNT 1 1 1
WIDTH 864
HEIGHT 1
VIEWPOINT 0 0 0 1 0 0 0
POINTS 864
DATA ascii
0.026604623051208 0.251425191456311 -0.268385814014055
0.093964578747810 -0.010262641563071 -0.006612699067159
0.103017099296039 -0.267875095132436 -0.353451787001417
0.116212024174264 0.044817723410259 0.055412658470699
0.299989764771703 0.343927511727763 0.225099990411429
-0.091378087327515 0.052702596619445 -0.046693564570468
-0.162846905068639 0.070454970878662 -0.442973759161225
0.411131705314100 0.038835448690299 0.343228722542458
-0.028532860653802 0.251905474784487 0.085826289303180
-0.109174919607388 -0.054245027191844 0.343159098640211
0.152383590252681 0.314418264064150 -0.083191852019838
-0.036536961068942 -0.004645108616389 -0.403886069190327
0.556010014973069 -0.061690394316919 -0.181807574625548
0.164569088735146 -0.001251533728359 0.038603880628802
0.237344121011261 0.220638522216116 0.167565511693821
0.406522485682215 0.262764599891262 -0.089102595650229
0.313836099512860 -0.001675341249838 0.045813758249505
0.240612851715760 0.465593020455230 -0.008028694969587
0.259484855674907 -0.335214977680058 -0.247213528601111
-0.048135550448042 -0.117887905096715 0.167273841695121
0.120672342248632 0.048433930926855 0.111477032335016
0.140538308888812 -0.339295813679357 -0.274739745781589
0.078762442130999 0.016484012980537 -0.082105205129985
0.163954430947208 -0.180881865430938 0.051159987105932
0.175063266362347 0.011696075311082 -0.237254666871568
0.304422226582991 0.097786785175010 -0.458040088212282
-0.032178483034786 0.357822421846894 0.171301790254174
0.518400756746354 -0.223150644048053 0.109297774608377
0.134171985670987 -0.334719504387197 0.259171366081330
0.176653688121784 -0.150036335769034 -0.392104203618472
0.136044296642897 -0.106856362817128 -0.058916374765697
0.076761482958038 -0.010507531135148 0.302111860571501
0.326129075472682 0.136314987596392 -0.194122325654133
0.158579853688861 -0.259126473776506 -0.177670462321604
-0.094791272049517 0.123706466186388 -0.465519799559312
0.298330684559720 -0.120872507922950 0.106792293361177
0.147793142453868 0.197417615351228 -0.175514321822546
0.158116081483497 -0.048387321213270 0.427994412572750
-0.023520318726823 -0.020286231136271 0.108999109565292
0.167141567221060 -0.249545114142608 -0.410510090719635
0.082766184753084 -0.151571162315882 -0.418588468846662
0.447108991513104 0.228312884930211 0.107829079457901
0.269889070361105 0.003245909331002 -0.238883455387811
-0.189584972035538 0.241801773356309 0.173778486848641
0.389404478402065 -0.086628550668117 0.265442743918973
0.612114021691816 -0.032783464113706 0.059710516431023
0.138088838740609 -0.000454493563386 0.145891452298158
0.164546050629988 -0.022701770953492 0.198546356726423
0.341022678368385 -0.124984954542105 0.353275847858244
0.119591464882848 -0.013820335310270 -0.169606769519735
0.013926444045130 -0.070805764268664 0.238214052721511
-0.061363043386587 0.254849172909690 0.181601473653359
0.003345411549754 0.164195111130476 -0.511363479943388
0.156991998815539 -0.010702014018332 -0.442796584758173
-0.203105517162518 -0.228991803280576 0.129751967499701
0.118100871389455 0.050688399522314 0.353572655842615
-0.153071007638712 0.264595797709890 -0.253739159890205
0.307379666303032 -0.432806842590852 -0.205263532177840
0.132148424813818 0.429675458021379 0.148354692047574
0.037391173122391 -0.089556452783127 -0.546526779470136
0.065718848405848 0.069741315237802 -0.206833587394459
0.474968056646167 -0.102681984439557 -0.179660773218060
-0.034742495467344 -0.054035082531651 0.335930294708487
0.275815031973998 -0.387530374577637 0.132565043991350
0.070693089495606 0.007558057193969 -0.543800388935401
0.087719979088219 0.217942409280561 0.339834933948585
-0.097511027763012 0.346624015476066 0.152819221190721
0.013392313507514 0.187708780017891 0.364230999222419
0.599057353078314 0.050878788127632 -0.164107008752768
-0.017461545373945 -0.220451373580270 -0.474750483362333
-0.256474923709118 0.208583983089830 0.037414388698441
-0.026752251171829 -0.179887913820045 -0.334253238817104
0.237727619403304 0.098808769072458 -0.495360123263191
0.117405102079122 -0.073484504988434 0.418615474040593
0.412538680363984 -0.294007341080961 0.213609258933031
-0.114616294558355 -0.126058326127551 -0.416852749610936
0.185212220809864 -0.127259142877402 -0.231438437710767
0.022115810826586 -0.103007019190388 0.037631272697486
0.517638739958655 0.168398747059150 0.108301230146846
0.361737516165395 -0.253590010415244 -0.329704299328209
0.259326690654160 -0.011494603803124 0.316959932476026
0.376380446624656 -0.069654134723215 -0.505571361314831
0.286170903386596 0.072344784770360 -0.090347374158483
-0.011167098438538 0.356666955415101 -0.358881021919107
0.182860031895624 -0.103975137678511 -0.133804258228521
0.245412880347709 0.276078567248989 -0.320360956228565
-0.051125234262391 -0.002886654083878 -0.256801750198164
0.135456260094971 0.017570634022138 0.398620524121349
0.194076079042718 0.102475758863581 0.010215444244576
0.151372522499002 0.148145996979214 -0.239134135976088
0.141601179760970 -0.101121835913499 0.130967738225183
0.008662042138227 -0.445953322189480 -0.188509058397893
0.193705589344666 -0.072192982942742 -0.061318622419116
0.362985763301769 0.003340118172887 -0.509978511776706
0.226709352089227 0.089954303620396 0.390694108533841
0.579969692259049 0.180599784639456 0.056615755551090
0.218464167937222 0.193644708224668 0.027237237868252
0.274748058224110 -0.085528070163834 0.148569356483951
0.134703646976331 0.113665248122481 0.054673951303292
-0.240522676960547 -0.111060325857968 0.041050886217013
-0.011026098756218 -0.351094453255995 -0.244353865451133
0.233002324167513 -0.022804933391778 -0.325313428615157
0.137166758875395 0.047257279528613 -0.327315160985717
0.142320888406649 0.094177130054006 -0.073801051098695
0.149666904061074 -0.004727337761064 -0.530308089012219
0.078025926563309 -0.208986416995039 0.246378661182065
0.257570491858430 -0.142243114567150 0.374162697544630
-0.227528133136757 -0.160004003251198 0.097276725879658
0.151529539518617 0.028652142894322 -0.254837790105020
-0.007088538975060 -0.229397320831578 -0.427780245123668
0.033755096732697 -0.158057857196245 -0.431479680503617
0.173626639209002 0.006651503124803 -0.576996470018266
0.127721387026220 0.144856959455918 -0.322844549176395
0.063890413165771 -0.006423923654176 0.062848353928737
0.188073626931133 -0.003722503574097 0.253449262741826
0.365449225702172 0.112082930891695 -0.263424793034813
0.159214592025577 -0.172828815050109 0.231838466305226
0.397338360630126 0.372927168576853 -0.024028924001051
-0.011017211774441 0.170855515216718 -0.338815159967149
0.252946676629968 -0.138655151785729 0.257041522802302
0.094685623705640 -0.050650951180456 0.019865807279293
0.201950266868667 -0.287318221403171 0.296261414636883
0.165210618987202 -0.273544423729608 -0.047562378847818
0.085759082756440 0.072248675513615 -0.197538095687491
0.093264606343102 -0.406979589927018 -0.324052005732460
-0.249009739438043 0.076655709553380 -0.277476750288630
0.197858877419463 -0.047130636601428 -0.148411008895756
0.524439360860559 -0.120648999483863 -0.094215580513652
0.175701444139206 -0.204931120371507 -0.152087790414244
0.216165605354278 -0.245554278958964 -0.441265809161862
-0.056271091595469 0.074229895330639 0.032465226923782
0.380894928661084 0.315042741694473 0.077840780596484
0.027209161303135 0.316278903790002 0.104627602792397
0.204477839123597 0.325566870153531 0.073097489667422
-0.159942615764776 0.262097474320858 -0.149277870828483
-0.060091309410112 0.329073318394670 0.066287981999975
0.114353683021510 -0.378688723776265 0.017261166695653
-0.043075905769595 -0.099862349417223 0.169523662700669
0.034036071162543 -0.128944144025056 0.127135834872000
-0.098639156075523 0.343295734813252 -0.277552849748593
0.225490757624414 -0.015782388405764 -0.555069713828579
0.444554362304252 -0.066817308281374 0.162410742841068
0.378000496766283 -0.009223989473867 -0.315119070633638
-0.297690718600768 -0.048392788434050 -0.207420765657410
0.177109950147291 0.020695530350217 -0.345851571182365
0.431449159385699 0.112753043157568 -0.407881339161262
-0.139781253503853 -0.195289088902999 -0.349621532152711
0.142653325775042 0.053138697414110 0.057734005962320
0.201522291502144 -0.014175464216359 0.062899054155442
0.482636654116657 -0.275233278958898 -0.084365795072316
0.339106547936536 0.071286208012626 0.110211527622346
0.342479412802923 0.130847121200172 -0.069508904288326
0.125814762795605 0.168379375092184 0.378595624120075
0.079637944631467 0.153552090454510 0.163432646404790
0.050964309684536 -0.435864650841318 -0.158045660451118
0.183946371788151 0.014530369169367 0.169694879063704
-0.127318813234147 0.380334656165947 0.008446594624747
0.041719701914658 -0.008385681834392 0.212559959963546
0.581476425553334 -0.197989665222556 0.011501645994752
0.102138302036372 -0.038091669299187 -0.148353681127047
0.231290735940392 0.116296539528326 0.380251467668351
0.422549805695533 0.204505403169640 0.210928285107673
0.156026900147339 0.072612212796401 -0.375689346090199
0.529405426031656 0.133060304496817 -0.065409961877500
0.379356820170323 -0.300759445911405 -0.354654820663730
0.097905108500230 -0.018649750509588 0.394109081165848
0.331140308859517 -0.212575631768896 0.083297762397297
0.348727204170256 -0.334968489369688 0.066526866297525
0.299227654675341 -0.304473413862879 0.061948525176967
0.378836934773814 0.111266211177808 -0.478769222502642
0.055188250994762 -0.012063717920058 0.039767550707846
0.125792772616531 -0.011113941338592 -0.273102706325165
0.277878722063689 0.156326974744622 -0.190301306560099
0.216457496886645 -0.298137768531254 -0.181796881210447
0.210141781194364 -0.198992903278072 0.367299173660853
-0.104780679380963 0.171012757927515 -0.070261312346890
0.225927877474800 0.059511924719653 0.081165689958697
0.182044872050295 0.220309709158798 -0.322252159031488
0.046504651508407 0.039653832943378 -0.192540027410335
0.263178432362532 -0.444317979769913 0.081773276947371
0.084329053906840 -0.031154451383688 -0.049319366024065
0.229502507231885 -0.022393748270862 -0.162401924582719
0.128369201936859 0.039414286306820 -0.439327769821903
0.066499251392465 -0.341759230189586 -0.024006396190814
0.218277862430367 0.004057100987322 0.243510102330445
0.242084969792764 -0.122454937288458 -0.510156780751547
0.097430037766418 -0.027118365371543 0.345833298373347
-0.049274296216952 0.068300271204302 -0.086573142663804
0.075245202656913 0.008301272071605 -0.557640439072329
0.107859647815077 -0.162606816711242 -0.071252560321991
0.326894953573848 -0.075769129335242 -0.064482163171144
0.040994845352212 0.027728444109483 0.085983767662846
0.141131040965011 -0.027835151519543 0.125194378304192
-0.020836163111254 0.066250192588988 0.376681077455163
0.001181657393775 0.061073814630215 -0.137867678510626
0.227165711661156 0.315681098145046 -0.053758944752103
0.396244840408232 0.050002133893050 -0.084290342908643
0.163739825013430 0.224936765837100 -0.491366071970199
0.419194995077342 0.041779071691771 -0.143498962909405
0.041941591312425 0.027647464023893 -0.312333727035775
0.148080930976275 0.187251245224974 -0.194047440671633
0.172471758015508 0.054917615448625 -0.248269563316398
-0.006367178223013 -0.148487364273806 0.160873610682813
0.149845298550458 0.000592995326613 -0.292283226148377
-0.114340140416104 0.037489917924844 -0.158375877379474
0.128364542490473 0.056894103582317 0.170091185851351
0.474260719661889 -0.260669545024949 -0.250438167476984
0.623569898047911 -0.030721756253965 -0.043177806566462
-0.158430393426124 0.049966219534177 -0.390388916884667
-0.016847673146977 0.423940806028512 -0.225205225497192
0.100103066585155 -0.054449994131998 -0.051855164013752
0.196513676340616 -0.032582115983335 0.210101405701720
0.217909829438066 -0.244791688013446 0.233268107778681
-0.055162046944203 -0.102062082032919 -0.132753567337009
0.159925919889909 0.003306189006719 -0.326929865352593
0.092438418087363 0.021396762698776 0.390683798036960
0.231577940150725 0.063965651074490 0.028286481362854
0.226341624382948 0.010607180107008 -0.266814661148558
0.091506901979984 -0.002515451294943 -0.028843840346485
0.180183291681600 -0.026426100975878 0.401199190151412
0.092182006397607 -0.322290165107793 -0.298930602349136
0.454741185986418 0.363995903444278 -0.026422616765197
0.021651561989959 -0.124310474012909 -0.509650383361547
0.408557115868831 -0.252097216056761 -0.306053402414535
0.128343132465475 -0.214988419659505 -0.115627474833913
0.096692777379033 -0.047981332447859 -0.538129968628997
0.211444131196080 -0.001580270503387 -0.125973518721508
0.239466073899339 -0.023578210680499 0.102325260157091
0.176041475286808 -0.023163131417375 -0.241297955133209
-0.199693162264474 0.074803702567940 0.009929169588319
0.162492748348851 0.141774426030291 -0.208633761258567
0.048387639870793 0.023159423655038 -0.148040967428403
0.409205408944776 -0.349033098884543 0.049535674226515
0.400247799758703 -0.197695918882998 -0.395553405874576
-0.118527094178394 -0.154226241950469 0.271791680912787
-0.225230424183993 0.230579170559965 -0.093766961162897
0.202252397664613 0.036280604912751 0.221724794036767
0.266527600156578 0.191946337004021 -0.107330980463485
-0.077780323072763 -0.195213212095365 -0.241067999449551
0.275035298755530 -0.086737733661136 0.045280083789548
0.077827679220297 -0.043036299540457 -0.555417460381828
0.111210379416454 -0.108281240462411 0.083515028683738
-0.022039869537450 -0.067431865974548 -0.274497401131983
0.232260764112678 0.001593845227902 -0.130803352146449
-0.180295340571112 0.315460726909793 -0.177547104793369
0.150844277631829 0.048423792527709 -0.301734058657238
0.247319477682835 -0.048700246503863 0.388296876174887
0.171521148738608 0.035104176108694 -0.405662067932532
-0.139303429396946 0.068919506533651 -0.179373662362950
0.068886571742220 0.012432052402704 -0.099459941525324
0.517932632827266 -0.094939947872745 -0.363769733158415
0.138249716283200 0.022784265984203 -0.367701503519554
0.326243346233178 0.166691137996324 -0.366384864716292
0.196879027186632 0.228278250500953 0.241197218569693
0.252734645859971 0.005967853457987 -0.286026798178747
0.103508611203026 -0.113448715179575 -0.021586146868324
0.206219680054874 -0.062537460225897 0.156155498471833
0.241947570342749 0.072933884115983 -0.478061752796882
0.008130264071528 -0.054864791979502 -0.311567630700062
-0.028421139902936 -0.187852316669710 0.276623146667903
-0.019558551258093 0.088033524192857 -0.316297837317031
0.066734097919868 0.162759239593820 -0.264841004418975
0.035389799861338 0.252843265755465 -0.163806276211222
0.176519736307292 0.095748162317370 -0.471224873121541
0.112443539254390 0.148391956955744 0.031567623234858
0.562427171326724 0.234219658956209 -0.123502560095911
0.071948065345351 0.104059250326020 -0.104471076753212
0.381262001797505 -0.283452174914651 -0.265213096462078
0.189858413908475 0.141745942393545 -0.481702259888375
0.430700553035140 -0.014407853428954 -0.326226700108544
0.140703383637780 0.294317938269891 -0.341704805436117
0.144152583516580 0.044633811243622 0.405341348764178
0.184032992811556 0.469993358373154 0.008259685047210
0.144782301343061 -0.125004717183764 -0.005194097189595
0.558510628414348 0.079342101918179 0.007492825555210
0.486278737936152 -0.131464015287072 -0.168480261951323
0.148551671589524 0.232864128119301 -0.372852104963990
-0.093616211705604 -0.177672285729540 -0.233162570447743
0.260066152914122 -0.404766894638611 -0.277531391107968
0.046978377292514 0.360159265452079 -0.305524386823549
0.081418194751972 0.078242295838550 0.416552590433550
0.258271990901531 -0.086836725078681 -0.170576345754973
0.351305023601609 0.227446039624885 0.063249055343220
0.137013620507073 -0.185854486472217 0.191648524758545
0.215361609844761 0.014559518023423 -0.094786013461463
0.411256921461734 -0.293787665786458 -0.353279520197190
0.171854957889639 -0.205845072891204 0.098460979636347
-0.134871093568804 -0.199249036661566 -0.400763209808972
0.097474410142719 -0.012177776458143 -0.571254213801290
0.104701426394191 0.131986865421284 0.154507689678492
0.271741385449846 -0.341673291578695 0.239447175392643
0.259913799257085 0.392591041746814 0.173245232781247
0.047593171339613 -0.219694399884117 0.042449185335192
0.121683261921662 -0.008588219854931 -0.197563935322249
0.101854619427448 0.324528224911342 0.185562336039048
-0.141965334917869 0.097283573564299 -0.435760473684446
0.197651718248592 0.186900116713053 -0.411206961169602
0.134362167647383 -0.100019284978859 -0.561655349687477
0.181943155041938 -0.352975526203359 0.255650139249345
0.048817620911646 0.009704369319925 -0.268813397571866
0.421286472728963 0.035033475687315 0.004325124425979
-0.062065432381291 0.153601525167470 0.299745482072632
0.216626713719292 0.198702915509420 0.036881893390462
0.480475811421818 -0.115595155021319 0.260657643594011
0.222821659663768 -0.093158572684090 0.221740984567299
0.221805642702807 -0.087083638541370 0.218229930177555
0.077835501780757 -0.271051013681088 0.159818137477251
0.354667940737740 -0.297964501022179 0.030916835417912
-0.021361930090575 -0.199148901370366 -0.169347104182321
-0.037888792297763 -0.148905446068041 0.126187971915222
0.317742361371875 0.246284933811251 -0.316639675214587
0.108176923339685 -0.044910700460492 -0.471726643357594
0.246013088171169 -0.018953083591321 -0.051977813039929
0.059976262459606 -0.292020952057989 0.046387694891644
-0.152398028630525 0.130176681228115 0.097279603116307
0.248717459484562 -0.106135740761565 -0.388211045803244
0.197438728294293 0.072552631963713 -0.109684882177260
-0.203069820910364 -0.214922439612223 0.175101895491484
0.096702831954704 0.347352641475725 -0.400500080389124
0.417879924679459 -0.352764988015494 0.072619949410133
0.332400086088857 0.063236714287389 -0.446101818634123
0.397324619749737 0.013682466603685 0.182892605440404
-0.154977972534455 -0.222561683799427 -0.271033498092767
0.359368853385997 0.158376288146895 0.002372426272819
0.155244778179309 0.150221091245696 -0.190677362433460
0.211713777780007 0.143716346137757 0.104872609106359
0.244562004642485 -0.139133629672632 0.393069141341510
0.147685028400282 -0.004243905477785 0.020087974256307
0.265221656363648 0.246856180033104 0.264267805507949
0.090239180107778 -0.171823606560938 -0.421142028601779
0.081752673780222 -0.111873418319186 -0.106023499569437
0.049700286065317 0.198501871747002 -0.194842312265306
0.096860966386860 -0.132948553160155 -0.131001588604994
-0.095575760096747 -0.046722984741611 -0.135378744588572
0.087043054908786 0.074671400862794 0.100831370710738
-0.240951150202466 -0.119608171387634 0.167967936956218
0.365038254051035 0.384798509225838 -0.273121839880115
0.251808212779316 0.171788384402647 -0.498112618543502
-0.086998965489202 -0.247164627424534 -0.213052342355620
0.153372665907909 0.393924782304330 0.124665032902825
0.219414570144191 0.014527075538659 -0.080579679205148
0.459325284066913 0.053726299987916 -0.174900372360804
0.214424576887577 0.116566448356952 0.051352152117721
0.146203022900915 -0.053952974641412 -0.329972514334850
0.113013129984271 -0.335299965558517 -0.158652956602520
0.131287789885501 -0.007792993633490 0.107447726199164
0.286815955169909 -0.031535060646547 0.345461145165087
0.147721400864491 -0.010250086708521 -0.531993752529057
0.161918659073869 -0.111755310009913 0.265408798163885
0.078267807507787 0.049548497696629 -0.184073757780549
-0.155446792083193 -0.133093039278665 0.161795571773332
0.262501592928173 0.388004912278771 0.134322188111044
-0.181041689665119 -0.230778789014949 -0.343052643747406
0.182595000585719 0.084826863779109 0.171223077964374
0.255637104131704 -0.037466408445876 -0.177231704874903
0.348963733795417 -0.052122236368369 -0.508256132954494
0.021025306111302 0.152056620093965 -0.513181608608277
0.068624048175052 -0.340238101590200 0.227811314039971
0.500742919498506 0.194025073701383 -0.301838943182910
0.113608773458360 -0.020341365604677 -0.290189759706653
0.064190768197725 0.117464825864733 0.093860012911600
0.118302071697793 -0.284300322185930 0.288330837675007
0.323253270356842 -0.170946514011527 -0.072455341354678
-0.298217402511476 0.158945602372458 -0.027728426224485
0.338258136517280 0.061660187596631 0.374482685549958
0.079568010398646 0.351311732232910 0.251605357858074
0.488443516556236 -0.115374730899388 0.009044947327143
0.159409057699352 -0.047128706999887 -0.019706003434362
-0.015135468582577 -0.150549681530126 0.220312465730653
0.229223523812282 0.445227692199658 0.101177610122678
0.468521120485577 0.220943249717291 -0.333366091142395
0.084117528579355 0.453398147057216 0.081467256927616
0.438710914558437 -0.054825933054781 0.317064409662067
0.034250176310131 0.121414677383388 0.113149012002643
0.161900059961783 0.040224524219820 -0.290712173834172
-0.154556382540304 -0.295815109273171 -0.140107939681203
0.216499701912988 0.052211360876073 0.239853604168174
0.114075896366435 0.130579670308090 0.376039135429066
0.146137498256061 0.395873210053768 0.211248455228802
0.046131463092767 0.167545099682339 0.204121396182601
0.123905041553056 0.111989124965614 -0.538678072223660
0.104983369117607 -0.059371276096517 -0.160502859789681
0.095303354781385 0.103243788563565 -0.497951983828468
0.356505064554010 0.433361132262607 -0.111875601680578
-0.009383941344674 -0.010565576864038 -0.222772627216201
0.013405168633212 -0.107671588258927 0.176836537595402
0.023703257854891 0.428485150009024 -0.141798624289928
0.281444739473862 0.198799279772754 -0.119472942088761
0.382187792129086 -0.042510276074895 -0.427583086331778
0.450282456756814 0.182488093657576 0.091147926175721
0.135275740045090 0.065092223954831 0.405511765199068
-0.043463404856603 0.067211641940804 -0.470345599411652
0.163135929207159 0.429829352358584 0.026258931594563
0.142677662288197 -0.012735078305139 -0.546810699482964
0.381872291813724 0.121629992516797 -0.009552608199419
0.480969965936756 -0.267737290674814 0.150847861327007
0.201196887109016 -0.036435852641779 0.409954707515169
0.488555850177326 0.047852766106633 0.079860644156712
0.109439419930741 0.064995903779383 -0.559059726239238
0.381972390014800 -0.069077455735201 -0.456938009719013
0.020277267401011 0.016937298276349 0.295537619212943
0.212405147816642 0.283446852631704 0.267216432991386
0.155497743606170 0.000774914523675 -0.269324465640108
0.080698183338339 0.404942151236643 0.102476203344368
0.155803269198829 -0.051616406426272 0.015029673853228
0.394711825812591 0.051511925366310 0.344113128887805
-0.126145838520414 -0.153401375041751 0.048698342942603
0.027727779167842 0.113944089435688 -0.041790849775829
0.259919177116026 -0.057233935179772 0.009994670433115
-0.016039318236487 -0.098738867368139 0.299463226989251
0.186271774940070 -0.310476154752671 -0.085796581877515
0.214275652338336 0.008393597705942 0.371645441429906
0.506505308227900 0.317860948071169 -0.092981192408271
0.559196661494500 -0.032685479300689 -0.052953806140283
0.290729835054664 0.243103079992806 0.016439130923098
0.008195519156823 0.207535031453919 -0.104958919072858
0.078661780020079 0.157118036137201 -0.507691076226311
-0.091051386062220 -0.199036071498648 -0.117267942548171
-0.211044368078787 0.113310389845495 -0.317723799361362
0.109835537685147 -0.393501208617008 -0.137910996708923
0.194030816766297 -0.165144121686929 -0.502647548773006
0.440005577432215 0.036381644783581 0.315962569862713
0.120364492832571 0.090569289735733 -0.078631802144633
0.221676706748444 -0.012617863872033 -0.241845362115790
0.083947453449017 0.174364353932516 -0.171223068394205
0.131230927669882 -0.028464369847005 0.047579560527631
0.242557305291903 -0.012307550280615 0.372953683180903
0.123553050086323 -0.106486462571655 -0.073530578006637
0.117390143515793 -0.052116546110904 -0.189011301374843
-0.189453704628651 0.081972035311250 -0.235020998125427
-0.015020249601599 -0.022441567284659 0.341185521933847
0.154752300759907 -0.008766016688525 -0.251174380914474
0.083033035716253 0.087978160302738 -0.555950268685933
0.014424037467680 0.212101685824783 0.119929075809001
0.082382212999026 -0.062692882133423 0.001299882363483
-0.072481126307803 0.340868830837496 0.056054447408844
-0.031795900445390 -0.244109440970410 -0.453095699747348
-0.165657742831706 0.115148172152832 -0.086302437934871
0.215126490579241 -0.351112206822693 -0.075521576378395
0.612344136358987 0.059458375037034 -0.200950431415424
0.227232928637284 0.132196925663831 -0.037728449043303
0.028228751575170 0.160481294830338 0.347540770832182
0.269372692517241 -0.063091829268256 -0.426815826862648
-0.098801169421446 -0.121767739281108 -0.278904582022111
0.179725887138552 0.157648145782665 -0.177377294409670
0.100269184343085 -0.077537697565474 -0.566450408681164
0.163389631163509 0.015274225233793 -0.295661583238205
0.175801002003182 -0.411616460442784 0.011320067836233
0.099085908785073 0.125510343938975 -0.515155799733071
0.180144678390622 -0.145544989448363 -0.538266269566816
0.180072052821056 -0.276089029544720 0.027532098898109
0.193932498054656 -0.185726524222158 0.037577784587639
0.182389603766316 0.108326116141958 -0.261804353676308
0.223142573817329 0.001618947880491 -0.103271992453128
0.118812602861115 0.080014620428670 0.276626717911333
0.244116457097625 0.069079594141015 -0.445661968701244
0.040800803678498 -0.321313407781473 0.024899849956853
0.370564755641062 0.003167358791579 0.096534478060937
0.026056520292699 0.403156259061628 0.169003089867933
-0.062092288971431 0.057565416006309 0.068654412673806
0.136059709431604 0.169642842547811 -0.214086461216950
0.244139633145171 -0.042694304847776 -0.086746172097522
-0.132501989925751 -0.388032053747052 -0.114484806696980
0.254274458444422 -0.202860759949293 0.062304976614262
0.538076217024714 0.063271947275200 0.214237421635131
0.323557263748985 -0.307416084416583 -0.379641551021753
0.163720869101657 0.013782495040771 0.115425808868174
0.089479064056244 0.011406814193568 -0.116014115771530
0.042907862850683 0.167303993386423 0.121419451362577
-0.162875477054339 -0.048442343290519 -0.232626715226050
0.179285877396760 0.010289741056658 -0.204125487390905
0.228033533390528 -0.014332974611382 0.068702990747058
0.128486445877959 0.006541135941621 0.052065414770592
0.264720979657013 0.284751022449775 -0.235937850268173
0.531737357734425 -0.044319777198431 0.176593093948576
-0.017230130683639 -0.393291640522979 -0.223520354434537
0.252461832039035 0.242121909470587 -0.280220429218892
0.488599048651963 -0.199825684287745 0.146126985731540
-0.287117895290363 0.137284929839710 -0.216076867692556
0.155207035667719 0.000469249428528 -0.164069339296437
0.250869469119282 -0.048431444864964 -0.324877468659851
0.524057208901686 0.216587492838469 -0.176421105626814
-0.293880365512987 -0.056768146025915 0.091093836627917
0.181051293561000 0.009365126304011 0.133868367224993
0.065405960155611 0.303622605232162 -0.146325326749770
0.146315568323867 -0.049017728804308 -0.126676372373338
0.324155329389215 0.084777950728208 -0.255517541858303
0.106806277947466 -0.021234298772063 -0.437899412241913
0.303851997918770 -0.204085713314037 0.094429966725394
-0.065132197697772 -0.074729190181469 0.125481331678439
0.436926962912046 0.189340032717122 0.026719599516404
0.017317368572799 -0.203990256044772 0.273747985046126
0.364650326792806 0.348709522352985 0.164706835673868
0.172040925836560 0.119386202637537 -0.502289564726550
-0.069064164487960 0.104496550885333 0.223549493599117
0.217131722661352 0.339428747005412 0.066518830249405
0.322709738459438 0.164709930713240 0.351980280613926
-0.324547588836293 0.022694941675492 -0.158734999152372
0.006629711826529 0.247020667682998 -0.445570550542573
0.143120957216288 0.004906216707344 -0.187084713400940
0.136994696828775 -0.090712908069671 -0.130635060337732
-0.079793199915828 0.240770861383646 -0.125427169484974
0.008110991159301 0.118436938092093 0.081908207195141
0.093739956889097 0.025891290205918 -0.316397407442256
-0.092829041014146 -0.134755398642985 0.080773133848314
-0.075548702416094 0.230302188820044 -0.441395301437272
0.523511456006471 -0.066323974513758 0.232284802584593
0.156332748858319 -0.069738687259503 0.389876455804982
0.164355049344507 0.315205695679464 -0.303917397795018
0.090205905507801 0.039631010307166 0.249785546730152
0.151812845125790 0.001420504537201 -0.166396996861535
0.182726813917983 0.004167902871924 -0.181988057489684
0.153427662201629 -0.037486447780329 -0.531152819981815
0.013527906506339 -0.153847921604616 -0.396823027633881
0.132836798537124 0.121631892453113 0.008136259602928
-0.023377546218396 -0.023037675751440 -0.183277493725744
-0.092376791733228 0.059602944383619 -0.412132646439791
0.247587987108477 0.100321977771571 0.323734797045326
0.083218600035459 0.041670134319383 0.058946960804625
0.292312544827621 0.190627285707092 -0.278633450789909
-0.094133095486502 0.151842974235131 -0.376947571978297
0.147549293921788 -0.029739296937727 -0.544423274722459
0.196808686368312 -0.034549966592453 0.122438906623829
-0.165636336232662 -0.261181167461404 0.058524702063174
0.234535985019469 -0.064118288262652 -0.549266652363860
0.141845383293695 -0.015140963814963 0.015753043748437
0.164006957657142 0.152082322522677 -0.111015633704441
0.083611428815206 -0.063687820179787 -0.563851401485758
0.133601817554908 -0.013365215159842 -0.391368388981079
-0.034040524872224 0.114481092851438 -0.336851368680555
0.122005791565168 0.120197672630488 0.014964426897395
0.102927752997352 0.073480052773084 -0.241205595683548
0.466960317632518 0.149713888840162 -0.041735401272115
-0.092384949728855 0.003245778112444 -0.003396986689754
0.133213673793704 -0.409728742363695 -0.015658145179930
0.073421097778181 0.357065355537795 -0.224663343147673
0.308714292231658 0.281818331175112 0.255039429046392
0.136403511524216 -0.011388826477032 0.138170009645154
0.472282911248937 -0.140771028133129 0.223700305022104
0.326132111290977 -0.373011708734010 0.180409195326499
-0.074559418341635 0.049393996725552 0.271860168909971
0.014611326078899 -0.407432878287748 -0.293447081555178
0.115564644298773 -0.076327517492342 -0.322229852875315
0.186683735672231 0.122568687198819 -0.419527667069186
0.400828044358926 0.320859580025453 0.101662780825229
0.275755228816062 0.173429374558399 -0.410510827115610
0.294946513275331 0.143056957339641 0.369581716402352
-0.030532714349243 -0.277536376270354 -0.270444755617727
-0.186819054254140 0.302310487146020 -0.115074329786610
-0.331905149740560 0.004915866091007 -0.054153976730372
0.031807600456625 -0.012735399344900 -0.064708386902574
0.173818909452465 0.003505906572330 -0.209277322993963
0.169511274952094 -0.101027694575198 -0.548960987520450
0.076569787461874 -0.091637081533023 -0.074467357040018
0.203142952390874 -0.050079981537856 0.412907505788534
0.136230877887283 -0.067152316338727 -0.101314276703837
-0.109361938288860 0.183583291989833 -0.369299795377459
-0.208393151917395 -0.125300945889219 -0.361394193208276
0.275667232874055 0.028786269868205 0.223995396881263
0.103905724941028 -0.172241939227022 -0.335839935762144
0.193150501391935 0.069344578331124 0.062272552797104
0.216613070937546 0.094714801274503 -0.180835984861889
0.089007023803417 0.230401611427289 -0.065253821826027
0.071571538239325 0.096790629416053 -0.181303747560116
-0.155233380581112 0.118311667461900 0.216473533563187
-0.071182166270721 -0.079813155956445 0.340335088284749
-0.300454132860161 0.039729551136105 -0.228692367085141
0.131684474315758 -0.301678528822788 0.313066549433866
0.177746206625383 -0.363897558091008 -0.014383498570916
0.139183005612805 0.002959275144004 0.051855325189755
0.144850397577961 0.010574048885725 0.288589720279303
0.154739204608884 0.000136863674554 0.258522891326482
0.009144676073300 0.081901145786893 -0.213597579819131
0.209975444448228 -0.024029736822403 0.176001177384749
0.422438499407814 0.121657932659495 -0.404052967103359
-0.015165307120887 -0.014979790369863 0.283000071221660
0.020714427555959 0.295286968805683 -0.011635415312413
0.312794132856100 0.126454150040085 0.260409915006353
0.151168035677308 -0.132251707224210 -0.528789263158213
0.169455477650862 0.029287818726003 0.159144708657692
0.060705429991965 0.019659682996751 0.040517687341932
-0.073025491601369 0.183914051046904 -0.031311469245274
0.376265351795710 0.215840353978273 -0.014230903557888
0.518963584642000 -0.244112002339449 0.110240162737769
0.224911004413607 -0.074496905870514 -0.301948179757869
0.111872791889377 0.194432710487587 -0.522971813252228
0.081972437197942 0.381130447808988 0.222549174954431
0.086486141624225 -0.008442347351604 0.009352238126914
0.023219506772895 -0.440629450097100 -0.190364704508324
-0.004249318311993 -0.383465909362047 0.183905375228284
-0.159992899008230 -0.241996065823577 -0.183273566318811
-0.260601957235594 0.017639608713379 -0.283164254364033
0.115997333416954 -0.073786206194714 -0.360793097592036
0.375697079289148 -0.088223282268551 0.049102664780092
-0.007516349022887 0.084945133004573 -0.333950068738885
0.360624455101348 -0.358207864798204 0.144493881945625
0.281883570328586 -0.110515298644410 -0.066040163742699
0.221600222694299 -0.048212287115131 -0.119153357740614
0.162531374442178 0.063930886478499 0.237467619394579
-0.011146715403375 0.072711685091242 0.261934463108392
0.264574683685414 -0.027262583242823 -0.203012991090237
0.336427777356883 -0.131357111099782 -0.012757057167793
0.060419646936538 0.118694402168005 0.058694046308060
0.238793769796152 -0.237692501956093 0.252459930887537
0.085231568453033 -0.162075688523361 0.046788671876474
0.145705951639795 0.190566474331830 -0.509697616631743
0.341042596565331 0.040473211903040 0.292406812813525
0.083151903683241 0.149634182606666 -0.248894596194496
0.123924287419320 -0.121074778324044 -0.460213803721150
0.243749312543403 -0.008995191049278 -0.562144795706673
-0.242024710889038 -0.104902168052509 -0.271348069081215
0.117968261912026 -0.025130052869638 -0.572303180172312
0.190225767693000 -0.046596338851428 0.364130764996128
0.257452173671871 -0.033146998514497 -0.196218678447516
0.207241880426298 -0.110292503240794 -0.095014005135138
0.214564272876571 0.030673884768203 -0.004681120557026
-0.175239030311126 0.205008648600754 -0.138621538935063
0.409811121697133 0.283185883703879 -0.361792176946897
0.109770033346597 0.182553746746143 0.356647028062053
0.366753709205283 -0.096506118542771 0.189108812759826
-0.217165887076244 -0.264871060612849 -0.242386624078938
-0.096474503225052 0.376203601364913 0.108194943218695
0.056535534514345 0.103999974426324 -0.525732126404572
0.255991101097658 -0.019736907160294 -0.072800160262042
0.031087248286812 -0.038525920508698 -0.156436577622571
0.133076740095377 -0.058551696893115 -0.097133945286015
0.157268927725185 0.070232757177196 -0.042594888260502
0.140982364218875 -0.077244158741728 -0.314705075624931
-0.034743482689471 -0.155910318481312 -0.389112544508863
0.151826836161483 0.000000919253191 -0.199676029280770
0.076328492103608 0.223344141615333 -0.447664941789498
0.245142878620255 0.162077993343474 -0.031930725571427
0.150252365364347 -0.431406379616910 -0.151027011460018
0.159960321639765 0.015953634710469 0.287456884681713
0.159961649896963 -0.047272143435151 -0.181250947350708
0.116829884688645 0.008758788912986 0.244852859496900
0.239500252369341 0.027727963028719 -0.300990986080411
0.346116928097348 -0.011100654578669 -0.449913408028026
0.069437129834892 0.005402411121602 -0.034443212485968
0.281692495664747 -0.178042449411456 -0.268227455582834
0.318105665294199 0.295722470143463 0.036971695458427
0.148088258994325 0.012559090174429 -0.175767608145579
-0.006591994938955 0.019125179462540 -0.075830061577396
0.116496020873664 -0.282293303575074 -0.052178301555876
0.150526958901550 -0.012615928573382 0.420294917166663
0.394600972984771 0.287669669497855 -0.379649165945543
0.144973324066005 0.001865918306027 0.093379539399879
-0.014948535003682 -0.155835331416167 -0.381254308569746
0.030529601480306 0.150743270092993 0.367722914625324
0.089156741144538 -0.051976007142981 0.092987801596064
0.270460411612613 0.007094470734957 -0.125321641207682
0.123270234361251 0.047713813125491 -0.371167166611018
0.134300306282060 0.024708991677815 0.333370912383903
0.418746513548782 0.070076497565983 -0.008382000895968
0.253080891501674 -0.168558088051233 0.110074623909031
0.386624533728814 -0.026604361773730 -0.091616059645384
0.014338438533237 0.086414827215439 -0.376917947454933
0.188944866516942 -0.085269725840948 -0.564034956587034
0.058182911289034 -0.039846110158473 0.098872050343205
0.117889353440811 0.176027276104063 -0.369217103876671
-0.015643119346528 0.318501973565201 -0.106045720125466
0.100740569693330 0.016259536074089 0.262773521016495
-0.011632216297829 -0.229791976944170 0.087219025911732
0.178595731784020 0.098256278500910 -0.504002874229181
0.264029283905755 -0.164959016267025 -0.164525695694651
0.339869419443156 0.148472440250787 -0.351225658415463
0.071262160827357 -0.180355745188904 0.131046848994614
-0.019964841223726 0.210802258608205 -0.459234601960568
0.389946887353200 0.275636722470757 -0.358397875997765
0.254203716372368 0.093783911203993 0.274881772658658
0.365993384838520 0.185749361477657 0.329095812302395
0.109932305056210 0.023526803091267 0.246947793269461
0.122035127974186 -0.021728059362227 -0.285239650121308
-0.077761388974786 0.029572342718840 -0.501606674025626
-0.126440867755999 0.163834251844032 0.160763971749291
-0.177554096029847 0.110102672282862 -0.164835485500383
0.134427636770071 -0.080538882713616 -0.082257972452323
0.213815580211961 0.009764152412150 0.059952085968417
0.423646876696984 0.384389712644411 -0.169948088627560
0.285013400940009 0.184039037655295 0.270006891989479
0.164849800715508 0.116540606829937 -0.463428793470801
0.106161076516971 -0.010726020893155 -0.144825253452770
0.353166875150619 0.293771261429982 0.216022008689143
-0.014546052678506 0.003008534116510 -0.060774306384640
0.070136314736007 0.031872898130515 -0.128855317362334
0.182143075223162 -0.213912726710660 -0.185126233359066
0.116939553885846 0.006114919406722 0.316118432716116
0.355778703242410 -0.160567964260461 0.165388445545578
0.234429422250359 0.078171873345476 0.187026186974194
0.044796369404832 0.123201441789961 -0.053990536493064
0.142949138178772 -0.330925260375803 0.045256603141217
0.167621156288706 -0.025156498080919 0.121797871326000
0.155249185570961 0.044420760219806 0.218129149967177
0.170178810501603 -0.072924624675949 -0.551231510517971
-0.082355926370276 0.294503168312448 0.212511865550623
0.152284609173683 0.004203769004734 0.255300375366187
0.258777134391770 -0.081215704806142 -0.179914917778957
0.256397638653322 0.199439080669407 0.063600406198903
0.138235212201775 -0.478580134556108 -0.006219158803064
0.138051598945252 -0.037705925545378 -0.247994500760425
0.328394469446579 0.041759749223377 -0.131639711165300
-0.247089525836526 -0.123344759377818 -0.011779178175880
0.156562569527358 0.132283412415425 0.139655127653029
-0.031068056688775 -0.107486696522190 -0.055488056376276
0.018277131395298 -0.128987378674332 -0.532149757342062
0.266993048294486 0.076916851869675 0.080435023670606
0.322295210637697 -0.135775211475922 0.370942170966817
0.095936467327364 -0.025896453870615 0.300239828699269
0.128694172011319 0.025933345775066 -0.555909079264635
0.024901972699172 -0.139770627815173 -0.211717646631608
0.301843039199194 0.357441529656807 -0.276441480245692
-0.001238752485168 -0.072993314650260 -0.216943813277988
0.222716538703626 -0.016334644046277 -0.182917289127461
0.135515410196666 0.000356544933763 -0.186034398972806
-0.172268347579229 -0.232367873408639 0.205915741163222
0.454229071890958 -0.096894672144037 -0.443846552677902
0.086513420602944 -0.179908243622789 0.119754600243104
0.200831596436736 0.011769741049851 0.253616277524290
0.183555152196266 -0.027085479807460 -0.451099409580432
-0.096277497902452 -0.169820248788456 -0.373243710594831
0.025125450088583 0.286147877863802 -0.341409992921229
0.220785757888964 -0.177376008814170 0.231486248293172
0.135878360525278 -0.472163072566210 0.028169445890059
-0.020427806912720 0.337551737669824 0.125958390423853
0.248463524388708 -0.101095317587517 0.060320605670123
0.239607644749705 0.108622131923482 -0.203493532984666
0.176500065642102 -0.194305238176271 0.204759156825225
0.251714669458889 -0.001744531636384 -0.540052110725604
0.063753716567812 -0.062228282117353 -0.241434994407929
0.265896306899038 -0.261248273026866 -0.337109611611570
0.219647573890183 0.022407899059127 -0.155738978535906
0.154141385511998 -0.044949733179618 0.385004470801385
-0.202482340698562 -0.080721546435534 0.093957819305550
-0.076062734303809 0.261943523766057 -0.230229330274776
0.042774824806909 -0.224968690180115 -0.488421288341623
0.193073712852923 0.004895040573725 -0.571614653198251
0.154605724795945 -0.001262071972765 0.052418120438030
0.150058131412704 0.000019676426579 0.032940403575371
0.166662102520396 -0.154245449120472 -0.263836739930289
-0.126166484029267 -0.120232006543005 -0.338680694390323
-0.315587345131044 0.055251346975492 0.016311916432727
-0.022765015557759 0.057081677154823 -0.241512312285794
-0.100622445261209 -0.234037323258743 0.114101819670494
0.019639448116008 -0.099768848978617 -0.441929472313244
0.003044164496359 -0.447485454046984 -0.005511623006593
0.207091077681312 -0.257294510113434 -0.459312281974855
0.221693109482653 0.047178818463379 -0.118937821440411
-0.060177168036060 0.036249535093076 -0.014587567756435
0.152419433291820 0.189166046436487 0.322231130276762
0.147279988026372 0.026538087847108 0.079695439836620
0.008019063943463 -0.246757875722289 -0.059092089366459
0.043467936869537 0.080369081270706 0.039436239770562
0.154361095018488 0.009211283038181 0.029993185989025
0.094973234839147 0.032577417448735 0.229136745640705
0.517865596343719 0.144073788811456 -0.255796282702179
-0.081498174175520 -0.243430430016375 0.038138986436084
0.094853194324326 -0.012599265647404 0.011894563778919
0.135547920361152 0.019802965854247 -0.215236340539817
0.175719122225295 0.119220140021048 0.332714846343247
0.200101092092430 0.001419828761117 0.256616022661019
0.150489948982648 -0.118831575808815 -0.464160323298159
0.097333206032045 0.199188529891780 0.231058417535988
0.106811577316225 -0.063515919578451 0.043217867673661
0.008386922078292 0.017448339381543 0.047822010765732
0.341547341199585 0.041113049825424 -0.047662077143814
0.190501339670387 -0.163172067452015 -0.441862333546934
-0.195481933317849 0.305615888455718 -0.180962610383053
0.341625400865780 0.063864592580705 -0.322139575662681
0.375564473460290 0.265269882023704 -0.415203225412223
0.389416876988603 0.063755715740836 0.351150633519598
0.018657237692683 0.279536637322739 0.081326603594901
0.410537259551838 0.179495719622670 -0.280990994842756
0.204244598008012 -0.120328277034480 -0.481002858096700
0.078891527701316 0.056875453427697 0.373808070431257
0.096713730153901 0.124723790911352 -0.496926459977116
0.197366412823402 -0.233844623943854 -0.474385158297536
0.264674268761021 0.129688969738931 0.014094866056264
0.376619638916705 -0.372297097015879 -0.149656224390380
0.015320275594271 0.059067801524051 0.094994106250523
0.394647964291501 0.022624481087093 -0.329786196948305
0.428773687291890 -0.288635881946336 -0.229638644755963
0.147139858221752 -0.069513090183135 -0.053653937906345
0.105239807183311 -0.078994988764039 -0.293762281915950
0.425615459821629 0.004223713300196 -0.062006893296430
-0.016013038720136 -0.126783563137791 0.202874390079478
0.192512554895287 -0.382288996728563 0.226895465100595
0.016353594058234 0.026403207010383 0.267564090349183
0.109912394360649 -0.008486595203064 0.257902981506706
0.156844608823889 0.314875401642739 -0.102804034568513
0.112043165735551 0.030971787667700 0.427994070240832
0.102289749381328 0.092621509289694 0.139279195007293
0.334054014791803 0.152536005696922 -0.415976672241333
0.144718047541811 -0.326515577778298 -0.361931872801940
0.090884945204271 0.046164372530782 -0.207231093157568
0.282168170901759 -0.259040270198196 0.114189006827529
0.151382465992830 0.007651571710442 0.377476820588029
0.316540175013078 -0.450628487483674 -0.040628115012564
0.574888962176931 0.177225385785936 -0.219868869570915
0.165379222423515 0.003904088978114 -0.410418522499220
-0.004320405548887 -0.045448555414348 -0.202182252158389
0.144731158936584 0.006265303374392 -0.547885092360600
-0.080826369031359 -0.103579101437934 0.075888366926952
0.041160042454058 0.275217297365386 -0.262989684659216
0.189065763786124 -0.034767081528583 -0.466593503441912
0.278150799670148 -0.442937326020132 0.040770939730112
0.125012033200453 -0.013436778963371 -0.576955102359300
0.084863255208252 0.178224045330167 -0.522707730888472
0.046712151079160 -0.042622570107419 -0.013182819491079
-0.021207051198073 0.165620444415260 -0.086019498660573
0.202431000924369 0.079064250541701 0.237812604439528
0.205964596354142 0.122986027035372 -0.523607706031515
0.276943498273026 -0.037580923954491 -0.515168011629629
0.270319680224136 0.156025495332920 -0.496333802583326
-0.159059385775146 0.147802092533285 0.059416971619877
0.220700015620942 0.140947346150442 -0.206705067916149
0.150521966670754 -0.000023136066628 -0.535071928247754
0.174929730367537 -0.240325333301908 0.228309925945509
0.051387366841722 0.032549073450258 -0.339951039430571
0.351800656162424 0.212429639459174 -0.155329857020295
0.050866019704458 -0.111921310356715 -0.307144023242955
-0.191385680512623 0.232629627099295 0.183976032301411
0.549467552607687 0.231982880869234 0.037112484212592
0.503791636221214 0.174871247939366 -0.000020227245190
-0.234288743169093 -0.131136874571273 -0.158720397129258
-0.079085806894506 0.021397113011460 -0.398424365417433
0.101698750314695 0.007843640077583 0.229876911441928
0.249799769591716 0.130527122530374 0.019758775479760
-0.184395056045422 0.069243521483281 -0.361006412732395
-0.186157313753373 0.038310073869363 -0.028897239061058
0.214140205936623 -0.122079066738556 0.115065096016738
-0.041896463283684 -0.061674615766348 0.321872967724651
0.000297940376828 -0.074182015664881 -0.311082393987138
0.011377987381899 -0.058536271521602 0.026404888550310
0.244087764278509 -0.015879742384602 -0.431290247834844
0.155501474929419 0.007568812921784 0.009255086705901
0.347390053751372 0.375219151995051 -0.241507018199682
-0.027328565569396 0.287439084247044 -0.121622904321352
-0.023278951541897 -0.387927375361466 -0.287038547660650
0.148952531423017 -0.085710302036968 -0.062469107885663
0.193936077794231 -0.149553726767381 0.047555716104408
0.071391554191147 0.003145526937930 0.141460202096950
0.123489597953347 -0.223917918009210 -0.319794367420670
0.197789809674513 -0.026729986122672 0.088802553526595
0.191477603217462 0.015305590331215 -0.255399425977772
0.201816156766172 -0.193458702484849 -0.231213044364994
-0.005592706955586 0.027521775403564 0.399055344481693
-0.278181443166567 -0.182587436457305 -0.119004339644423
0.146407045221403 0.004719466834945 -0.425196901917945
-0.204814787784181 0.228136553254362 -0.306073446670039
-0.210235497139895 0.104534599497769 -0.361029044790119
-0.030121364087940 -0.023768333878172 -0.318482398650450
0.148888879552397 -0.000709999986483 -0.188768116952744
0.408609630294292 0.064884095122483 -0.020947264983855
0.355804297516789 0.008870099765320 -0.083709688682282
0.048722387100985 0.110442557404781 0.051369066928340
0.331974293733748 0.040988128254593 0.169423494474031
0.413482923799247 -0.254136394960717 0.161207703813239
0.594194229760966 0.031688010930793 0.118873434508886
0.036605816514324 -0.040972897106572 0.305110977772574
0.028445210974999 -0.425159929764971 0.059318232738699
0.361141332320025 -0.296562935296811 0.082200350454590
0.200900696561476 -0.015920354799197 -0.565472690131613
0.237541739565495 -0.031003674161628 0.072321265763144
0.243626393123100 -0.059341498851149 -0.033204888693040
