# This PCD file was generated using the MATLAB® pcwrite function
# from Computer Vision Toolbox®.
# .PCD v.7 - Point Cloud Data file format
VERSION .7
FIELDS x y z
SIZE 8 8 8
TYPE F F F
COUNT 1 1 1
WIDTH 853
HEIGHT 1
VIEWPOINT 0 0 0 1 0 0 0
POINTS 853
DATA ascii
-0.253927187106875 0.365459784156230 -0.325730300561143
-0.484581619825808 0.298392772810995 -0.100214953027869
-0.312296296139125 0.246525758957388 0.068209473706041
0.100706302452083 0.066159937398310 -0.197318238764621
-0.299700394206240 0.047470752250804 -0.476995721338135
-0.556340779363911 0.069429854915860 0.040802207310546
-0.230703896576453 -0.105692074155712 -0.465475632969522
-0.259592004757978 0.012337734353630 -0.099467178617489
0.280502078259083 0.110977706834410 -0.209188499168045
-0.397003784452246 0.253722857737687 -0.242455174482122
-0.242971170696789 -0.089996181205926 0.065056047321918
-0.378631877939084 -0.194809910204677 -0.453197727531076
-0.028567852107539 -0.130083980459387 -0.520893182096200
-0.143586761967799 -0.001242914168060 0.019935526921631
-0.272297143404626 -0.005831828800427 -0.190163335442077
-0.007952074143506 -0.178940304528262 0.024693013190219
-0.426302404840741 -0.200439197908258 -0.286268621624341
-0.502832385825205 0.046039126973600 -0.247905910682571
-0.133913580672518 0.046424997905555 0.077714518462628
-0.147529965681132 -0.006598128867624 0.357378683770938
0.011841065236080 -0.090356810879159 -0.237894169318561
-0.041883120138148 0.308300331065498 -0.183619034843307
-0.221615836394764 0.107665314881790 -0.027738904908108
0.230691589791969 0.157710716147145 0.035350470850086
-0.161262709735935 -0.140346841191741 0.343811643212951
-0.081837494874178 0.342722807626177 0.263530188127323
-0.090830594898135 -0.007494545042506 -0.128176357770813
-0.042208721484003 0.281271415060639 0.310833195607863
-0.298912181302521 0.144291413124877 0.127833712194617
-0.030099900010810 -0.085080576093220 0.347845768905106
-0.206385339877496 0.019021294893896 -0.544104880068395
-0.126648077043059 0.022554510121698 0.015307344574615
-0.191563838943539 -0.023717667215615 0.349883365802066
-0.148793514427284 0.006258410245008 -0.211966458513702
0.027156357595759 -0.395828261268748 0.061594349726129
-0.180930730265352 0.157180626290933 -0.227560652813883
0.032403723435397 -0.044857138085398 -0.331991083016275
-0.618258229289914 0.080150045662578 -0.141329505148593
-0.192536308272094 -0.218405369109575 -0.085989878774813
0.257866259112446 -0.105367398160377 0.151689750210390
-0.006352883950383 -0.031470548021755 0.032328577016797
-0.130649353808926 -0.089204814304611 0.031711332676411
-0.351356512383202 0.161094408713712 0.307796096960687
-0.480708573851654 0.209914013189870 0.216602620871781
-0.213032677242328 0.326020725783813 -0.252765122127655
0.215415317254423 -0.107126512632915 -0.298052235692896
-0.112102479220718 -0.013452304555177 -0.568823366237103
-0.176547821809861 -0.020386719436430 -0.212987177225686
-0.280206959634879 0.014122031275217 -0.413762300637494
-0.070847424529038 -0.048497517638669 -0.338460825129436
-0.094591765915540 0.270782389605338 -0.439322352460619
0.033700302768462 -0.410295864760620 -0.217857129725760
-0.182324711262933 0.047834581858990 0.161208554268283
-0.174841707326442 0.045489055313742 -0.182252286269439
-0.091316360801481 0.024415825150691 -0.035455786440824
-0.083172439600045 -0.273439373449032 -0.464978551362096
-0.227767471782081 0.004279771819733 0.012919940183009
-0.243330463412261 -0.154127295462037 0.220912187591400
-0.167554144434699 -0.172694210596371 -0.192325256298387
-0.523002426532862 0.110663049514002 0.051630731043171
-0.143573344604348 0.407510142401411 -0.064747064889905
-0.137009887715877 0.277455322817359 -0.322610822102053
-0.066878772436142 0.080522719051586 -0.556538100287712
-0.148954801356020 -0.122872036652541 0.401620589681783
0.183893698738761 -0.140058838351002 -0.028877414043345
-0.350855614683633 -0.344787166918580 -0.279328781510485
-0.374920212140860 0.012526962730231 -0.176615733903675
0.225893805389908 -0.171162426878624 0.166599589262314
-0.339222783242255 -0.196001638546429 -0.381752067834046
-0.225355969750913 -0.003584806644550 -0.042285325129434
-0.083024392317516 -0.033817362441999 0.159075169761192
-0.217273847483914 0.422486596382097 0.142466856350778
0.072744210479676 0.280877519695132 0.251691062220790
-0.185104550579560 -0.060753744308697 0.039757370676720
-0.109884524123905 0.019859345060457 0.020119019860559
0.108274972765411 0.245758810305065 0.261564210906822
-0.607871188657642 -0.131325548705955 -0.148268649267686
-0.148271194764914 -0.018419146155282 0.029396814483779
0.081509392997571 -0.041820904907299 0.315355200155906
-0.010943771602971 -0.189059703112066 -0.492535213604546
-0.180272078074597 -0.015694252552080 0.254958747468590
-0.096659147015154 -0.339801117141925 -0.289495331500154
-0.386912197399741 0.075926675935936 0.275587076057461
-0.197305543211320 -0.238748341241695 0.058545849845766
-0.150912052653367 -0.044932520923396 0.278145366231822
-0.249356474126323 -0.135242670456600 -0.193471641659990
0.062376204038010 -0.021901690038099 0.142930932818080
-0.596176645485860 0.178070290468474 -0.122642852304644
-0.069782784288232 0.449631461926512 0.059531138886930
-0.105161062191523 0.031469121719866 0.416899644501138
-0.571891935358459 0.120329687078958 -0.101880119402785
-0.181624392992513 0.107323306105391 -0.257684688136265
0.007077512863970 0.082105435385908 -0.170058204103440
-0.424897194554182 -0.080846289399752 0.057597571802536
-0.025242941665765 0.097774335746979 -0.258378106047270
-0.156948517691294 0.119367971329088 0.090360600393672
0.325693486051522 0.018976513055280 0.009770186508786
-0.157250709459295 -0.000785808212987 0.425593331965822
-0.320815243890158 0.011091034489437 -0.208550149100802
0.089570469592640 0.149385104257878 0.329723076368565
-0.265396087177033 -0.112965527937024 -0.532350177428453
-0.133353269915032 -0.012921080913912 -0.222070954860883
-0.210186995787608 0.349269596403009 -0.196872015875909
0.000296140847718 0.038793409258998 -0.217748977824172
-0.081737818472907 -0.105207532849293 0.019576165588972
-0.511919175666502 0.095156732456208 -0.375417477013259
-0.066233654706749 -0.234685758793963 0.229114424054902
-0.062031501596728 -0.025395537545642 -0.559408492024454
-0.076611665494218 0.300201870183235 0.164413507213008
-0.069152350005041 0.094683975717637 -0.182006862650904
-0.155339339275831 0.006041552887833 0.193189628147056
-0.291814258457416 0.131428242519385 0.236679422076541
-0.306633957010569 -0.127492910597091 -0.133685396183066
0.053304300673793 0.052392943957942 -0.247993464086916
-0.118496416771624 0.091069820586080 0.253925210529743
-0.374418477699312 0.132063141622129 0.325725256126392
-0.183138079166616 -0.163913480284847 -0.232557595199506
-0.190072655491189 0.034309154406872 0.425350038154510
-0.231479245326276 -0.197653514227578 0.100780163309450
-0.149879181551928 -0.020157282650086 0.164941337686849
-0.271160909519226 -0.061364808468426 -0.417255423550487
-0.042036898188057 0.014549967685261 -0.127938518932032
-0.148185032407266 -0.011102275720269 -0.540047403296687
-0.096274972313094 0.015867373503258 -0.406853874241875
-0.128973519374798 0.014484579947622 0.143220720327927
-0.205171762567650 0.018533524196609 -0.130671518685436
-0.230835498160517 -0.010537727085234 -0.172559692321670
-0.113407759094893 0.074943480317934 -0.103288812324526
-0.188933900751269 -0.154892608902048 -0.272080527626261
-0.399526392194826 0.382120151174984 -0.205141146495459
0.004245779963661 0.432414680189349 -0.013272234041314
-0.046921810196992 0.000531304484316 0.309160633920773
-0.049961400498221 0.080254967850715 -0.241821746441602
-0.215443669430105 0.084482362054921 -0.159819490297430
0.076879568203244 -0.209932651071818 -0.006565913006333
0.172280786739876 0.335353930099324 0.056949150389079
-0.140664203755229 -0.223729030996324 0.122251694355155
-0.131638955212995 0.000611810086011 -0.165877130526015
-0.244020195422530 0.393451044062515 -0.285402874104073
-0.139145586931406 -0.044338828090911 -0.526123921311883
-0.150481262085508 0.263679915412525 -0.274279033433262
-0.202951657362205 0.190012199550039 -0.443483865547989
0.288855492102006 0.022811020594834 0.110103352338346
-0.473254805441078 0.097119574439795 -0.266191086107056
-0.149617293171980 -0.067523151156045 0.253946125129198
-0.188547682203445 -0.002637951974862 0.028192736573879
-0.605439462544539 -0.109538243943150 -0.101718801641525
-0.118059027832257 0.159554410319174 -0.529151645977664
-0.004166010913630 0.096977565657373 0.098781333681634
-0.103272391501981 -0.015980811966770 0.039310731612259
0.103585854205774 -0.211989689038770 0.272572457919321
-0.179901458039306 -0.052963392273957 -0.024819429285742
0.188546516999326 0.228293269298093 -0.078196709095031
-0.391374882956610 -0.162863808757607 -0.218054069950707
-0.016257619267868 0.351197918843824 -0.382435152386170
-0.066778165711523 0.035014996607753 -0.097893028823219
-0.315073347909488 0.453324704925575 -0.096120286779377
-0.086386278918945 -0.029137676182505 -0.224342830607686
0.187205614717069 -0.039801273187504 -0.053786457365254
-0.432288677164294 0.345660479649361 -0.258293063145081
-0.290984531835188 0.072828148175425 0.272916654617901
-0.286123996795099 -0.225637709667193 -0.425447448308350
-0.011354010199692 0.322143851736017 0.163491513225598
-0.492553835731718 -0.032015007051449 0.097483488990266
-0.077095073951537 -0.084056066733438 -0.520858725816721
0.043568283781821 0.292059654413069 0.002143046708857
-0.160621795683439 -0.191198503987438 -0.375709949205828
0.115800090938404 0.374587505791956 -0.215052751693842
0.234779243498098 0.129759249592172 -0.141110223092460
-0.205233553692302 0.035132161130207 0.360255402438888
-0.244577558690959 0.280775948955137 -0.147146903279763
0.084504798461646 0.276994421112479 0.129111078147621
-0.398048436515265 -0.211489205986308 -0.057720394044676
-0.032772854840197 -0.177840341950409 0.325262244889791
0.028910165692414 -0.035519110839310 0.299652649959708
0.130451579430620 0.040449679860449 0.302634734595950
-0.333471162259971 0.058579413039652 -0.483246517808725
-0.406603179890771 0.252722027250529 -0.053400191516600
-0.008806107182756 0.416005909594942 -0.011979824413555
-0.195017681963792 -0.184854303764189 -0.199849211321496
-0.004755997949332 -0.079407716770469 -0.398600761076492
-0.320557254574830 -0.130152890131475 -0.340148069352874
-0.084848431265685 -0.207252952761596 0.371403015686453
-0.214388304396320 0.021577346548959 0.015522291665099
-0.264171712719169 -0.304129060644610 -0.024732145055496
-0.279539376535714 0.225730088179680 -0.470544284415758
-0.126200287761818 0.027490320968043 -0.456424400163270
0.015634930286833 0.110080578174727 -0.519985978699901
-0.199683105842430 -0.001817017334003 0.057296239736393
0.052543827781114 0.033467677733030 0.098204002440365
-0.155811358547501 -0.010837484068060 0.429736420157063
-0.185505224614738 0.083781983281414 0.265160377102049
-0.105189524255270 0.093872812608928 -0.503999894387995
-0.121289574722672 0.044698105314861 0.353573863300996
-0.101538844909134 -0.214879764162136 0.320693419670779
-0.184638165726441 -0.201859840639686 -0.468922501529065
0.063925920828549 -0.237536259792386 -0.428405783124716
-0.048793251659446 0.460818675777053 -0.145064628426396
-0.147813324610019 -0.011316881634215 0.211351290876188
-0.216943181791680 -0.244889263057579 -0.057320618903557
-0.263065519958163 -0.201581267694527 -0.483032790815482
-0.038042576490149 0.279270353402240 -0.227133026585150
-0.106381768426715 0.284094366754325 0.166787034642102
-0.200841219863355 -0.283506496303655 0.250309521066545
-0.156287279870572 0.005937598999641 0.019660784685493
-0.132127876682759 -0.081803439452731 0.043921201988411
-0.044814639899540 -0.376476309798913 0.142525945941048
-0.305421722018940 -0.217517894540326 0.198072222700072
-0.480198774668493 0.194648557928627 -0.365158519195695
-0.205669126557570 0.037737335337562 -0.009727461769940
-0.150879037563284 0.004254736357545 -0.576652556163219
0.060734474349766 -0.422208575289887 -0.173460837526430
-0.363611088084063 -0.272734483127578 -0.235018646029797
0.137645115684483 0.121973662515874 0.298222945097832
-0.146714139742005 0.240698611558758 -0.137370671772966
-0.062453274650202 0.005561224426926 -0.149532024269454
-0.327578647783305 -0.310996729421747 0.254486547523499
0.007439436202768 -0.229409307934211 -0.471981432093862
-0.123894303277836 -0.167064296963563 -0.407776475893065
-0.144437624006680 -0.027049072425183 -0.168622577273399
-0.407385897755574 0.017876947962989 -0.245074706879880
-0.281886716182237 -0.010592809036868 -0.172159441805861
-0.156909663854881 -0.058590527937216 -0.035492213353380
0.145537682311195 -0.143174589584349 0.084734663752143
-0.070755005194451 0.022993031676321 -0.369195195303513
-0.183395675565636 0.016262878248966 -0.346135926173608
-0.139634246551764 -0.036664790760966 0.292691371070593
0.020401734465716 -0.044908796214832 -0.342303149283721
-0.182326035924762 0.056391009123492 0.216038876449181
-0.219720708871276 0.148004279946736 0.025820836188844
-0.388620167421697 0.132685307332921 -0.340143979153815
0.070975719431791 -0.304936365447268 0.138644471928755
-0.306599786336786 0.026702417773118 0.039365797414379
-0.020589397723424 -0.463181235565947 -0.049146581493844
-0.111902232827839 0.101819159365809 0.407088040011431
-0.383852491677048 0.258984987627821 -0.410375554118784
-0.011973287784401 -0.177848024415108 0.133860624913872
-0.035622182590833 -0.135427491520884 -0.058989123759565
-0.075047239191285 -0.188691653726099 0.379770913978222
-0.420457877388994 0.082810404327293 -0.441605768332677
-0.014869735689567 0.354543496587658 0.166332511016278
-0.449561853792282 0.168664285510350 0.248979510183471
-0.163540868871468 0.202319803409989 0.061683964382206
-0.181029645313775 0.120605594102332 -0.456357214310236
-0.142475746071993 0.004586221746225 0.372251140971064
0.195215919562712 -0.294723793631135 0.052858571389145
-0.191239004278736 -0.121935582623052 -0.251478027295661
-0.539788186278679 0.216569165703943 0.117497226205850
-0.061378032001572 -0.424140453534149 0.038078096966403
0.202398079029920 0.002446471885714 -0.391306901959760
-0.285505973038542 -0.237584016859887 0.180352195873629
-0.223788661875746 0.102864276179691 -0.331420458381895
0.070865477915188 -0.256128970534673 -0.079918370292533
-0.512926406185989 -0.115642215200898 0.046187102093142
-0.127524082952447 0.096492780755945 -0.544962864274767
-0.313442994049325 -0.353857100074448 -0.178310984423963
0.022014598045250 0.099278561194354 -0.495288172965178
-0.188911278571409 0.208565084055494 -0.165424343050335
0.214268293363203 -0.168293822429740 0.088580133245113
-0.198792826930558 0.409519459618044 0.182464914988450
-0.315804513189258 0.042754158593645 0.186923031248997
-0.539918083302027 -0.213222474329399 -0.139586898796460
-0.204567483981289 -0.024509489173486 0.409067522785574
-0.065488818618291 0.036296234640654 0.068170878696585
0.115738394569846 0.161216403551613 0.220272376563686
-0.159889836871256 -0.049700050823068 0.366160118221147
-0.246402695573808 0.034135706352774 -0.062074183667346
0.153809612878203 -0.139877815252794 -0.371596119224532
-0.330635204106241 0.278694103126869 0.220893935419180
-0.178736258799317 0.048858617299376 0.243734765723568
-0.066862622824918 0.124818522012127 -0.178293556834925
-0.137727129432625 0.074132943734238 -0.103124769690187
0.098743579768385 -0.042723192942915 -0.495957594548609
-0.189220257758512 0.100207528029056 -0.163172284955343
-0.570587689512750 -0.131919420779525 -0.267150489827988
-0.377767634942099 -0.243457762008799 0.141867975202842
0.009243528547049 0.139719859673884 -0.479080986848644
0.099928534526830 -0.367030157506363 -0.099996381967350
-0.361463334408408 -0.318473778298197 -0.312930563850726
0.275700448262733 0.037335939803068 -0.069536920234714
-0.601249447287657 -0.051101738257265 -0.108440067711725
0.113409549392365 0.001155548766796 0.095131697022527
-0.295640581871693 -0.122205649218212 -0.520063417423275
-0.355221887655247 -0.407251768121446 -0.234842263015047
-0.182145834122014 0.036381587609423 -0.570060607050144
-0.177213420152287 0.107836996445627 -0.106656852949670
-0.209290352233537 0.095928000884434 -0.347185971040575
-0.085642497972221 0.096520797177453 0.331094506171699
0.023759816135571 0.094775039836655 0.340841571910112
0.025674214559527 0.070770421993261 -0.099465428551641
-0.353776069837898 0.177967937449914 -0.382507378458330
-0.500500402221902 -0.113935255378009 0.228584018878319
0.043725842181216 -0.428000598160332 -0.154593576147987
-0.033393206482309 0.416062665824990 0.147662371561220
-0.419633330334591 0.189994800046644 0.283116599975186
0.264401609436892 0.195781651176003 -0.081977033329778
-0.242172409615523 0.082418025495244 -0.293550712973969
-0.377227063649353 -0.159017878627826 -0.477906951826804
-0.162853286116710 -0.073848680583140 -0.322972632117665
-0.190245752918339 -0.162814139746347 0.356922212323587
-0.060418151583151 0.027133105878433 -0.090612233891461
-0.496737252323435 0.191972715155265 0.210821987860361
-0.273437167615814 0.210783309949664 0.217309105529935
-0.166513513176847 -0.094244216579322 -0.301390981779730
0.025920580054298 -0.111497071757775 0.249145584594621
-0.211213395571342 -0.054755800775598 -0.173150835214130
-0.552047949047986 -0.097519527569020 0.138299990389587
-0.205300991444283 0.116956152370447 0.041720400162627
-0.243050629249194 0.215986422685900 -0.360248628821880
-0.077625486024048 0.108067320786089 -0.226080566167367
-0.016920922161777 -0.056099024429165 -0.233684193043735
-0.186949107512894 0.105099101206669 -0.124403207838438
-0.248401338026142 -0.106168198250427 -0.547526092487885
-0.162403320371038 0.118730861238136 -0.482401449193972
-0.386888421437747 -0.375620581232208 0.013347059501136
-0.000265254664295 0.072390228556370 0.393575904193676
-0.216613558094784 0.284909851605561 -0.336156200763679
0.050108317828041 -0.343981823372818 -0.028146291511214
-0.360893494167710 0.280458414531114 -0.097760344746706
-0.370949635670931 0.089910554575319 -0.480824325935366
-0.084767101394105 0.039244929058474 -0.327305031119736
0.086608985177828 0.346898746809288 -0.306206443914664
-0.371790038717680 0.118985497194311 -0.062732841304663
-0.109401099314472 -0.471676288586185 -0.122104692003741
-0.077885133941115 -0.002076585521053 -0.552029756623710
-0.104535899963485 -0.019674262290994 0.207484874286804
-0.150400501947949 -0.063750076950365 0.420191313987487
0.072768250553017 -0.312471120544531 -0.335914022407009
-0.162901326101036 -0.045628346436430 -0.466979327054263
-0.275147011301314 0.058209821227126 -0.072170553174616
-0.104435612610179 0.023731283300117 -0.223482901507294
-0.249966415292941 0.443200358583386 0.089336417900786
-0.170000594104511 0.043261206570548 -0.270299866177549
-0.119688809265430 0.159223134499506 0.003585997341441
-0.179491473863396 0.350381700916133 0.229206488973044
-0.417021596594044 0.038504546036126 -0.478014628515382
-0.014551085970919 0.087183324777597 0.360251128987798
-0.051961896040669 0.144638812947433 -0.328791206799323
-0.103775330318995 -0.058603876853200 0.031555796169865
-0.397055296158017 0.029768163564373 -0.069775624800521
-0.097951028447997 0.036703626091694 -0.129038551383214
-0.184891388184167 -0.080996428378100 -0.040696748734061
-0.241726592822658 -0.146793987526046 -0.133733308328723
-0.169377834962968 -0.065022861023886 0.056721295626462
0.106971315252391 -0.383116809158275 0.004273859851514
-0.217098809207295 0.031422462173738 0.423687886198164
-0.087893066042113 0.096918289414206 -0.538593911478814
-0.175870798993187 -0.042125726120673 -0.012726957839036
-0.305793065758605 -0.125694917655747 0.352741368340404
-0.164071802971234 -0.038986947275829 0.164833725431444
-0.511479885220326 -0.048350869197424 0.109703154151401
-0.262770152072182 0.182697220002752 -0.393122481319745
-0.011557484270617 -0.157744012160752 -0.378446510195957
-0.331476504454326 0.195332754513343 0.326995810456854
-0.181003883352939 0.020527022174653 0.040350486124830
-0.021532436511062 -0.150681736506813 0.336938209649850
-0.097536625783417 -0.225646562103354 -0.229250908423487
-0.153460269270826 -0.004195250129724 -0.289402600150717
-0.150154165636982 0.202009452858698 -0.322369396349279
-0.069062100332007 0.291970206962394 -0.140835005321947
-0.171863073610027 -0.059174001865607 0.245136312049781
-0.144800204228231 0.012608011001530 0.411566192001252
-0.287295978676452 -0.113154731792884 -0.399768214575974
-0.092618243366421 -0.056407613846572 -0.122117388687029
-0.106833185273120 0.005019043191418 -0.268280750169104
0.302826720049970 -0.086702803659719 -0.059857892254799
-0.427621405972235 0.178020444053314 0.021642896954192
-0.027430587002241 0.000411225059963 -0.514137665374553
-0.116166910232799 0.165994622759274 -0.532537375492429
-0.121984611874342 0.002996415700566 0.207104202364637
-0.193233330481382 0.077984973966086 0.238869334227220
-0.426485726204325 0.268181287709876 0.176959814858641
0.137320164939110 -0.305747919789856 -0.221281113689985
-0.129729418360718 -0.034566969842848 -0.550586524177542
-0.147566718386974 -0.236127896093417 -0.162433703528587
-0.161000041895601 0.041070214702480 0.338198564424365
0.011695793377943 0.042391559733037 0.099343106402062
0.155867285225735 -0.253986883399102 0.106094592563767
-0.075221281358280 0.167870008805631 -0.403784542878857
-0.194451944392800 -0.182204725009068 0.303938604591002
-0.168900773699885 -0.090896022709593 0.372626105887011
-0.158266759747734 0.038562998469562 0.084645649534796
-0.399229762527499 -0.026619121828288 -0.403281591675660
-0.193915264281975 -0.033838617575429 0.132794191292485
-0.233481554357381 0.010692978002221 0.037722701858100
-0.521078173186702 0.010126555260648 0.133791994510642
0.076981332176487 -0.093276850533815 0.268647484521528
-0.358592115693288 -0.033447170913933 0.375213109860448
0.061128847608352 -0.184345573855309 -0.199864938424359
-0.292267045818217 0.288363146232081 -0.094106898989075
-0.006471314023882 0.392961832892447 -0.273781724611351
-0.092759699271351 -0.110314743966934 -0.157417956892199
-0.309548020565940 -0.064123920295033 -0.522581536457204
-0.199176075199290 -0.184725605879414 -0.296685216168774
-0.080670122312784 -0.102471840347941 0.095308603075421
0.057294735642590 0.299302422219189 -0.239405687733716
0.039474196145839 0.144547301679026 -0.465056704624062
-0.476857085420813 0.337414708252503 -0.186924559836998
-0.292758137713768 -0.392898374759516 -0.122296526904529
-0.223332978203341 0.114263818690069 0.352338194997124
-0.447161314341227 -0.206517623829075 -0.284537516813993
-0.545526122419905 -0.178396304536389 0.068260258958541
-0.149694084973052 0.090902172320319 -0.563276249183728
-0.414064384637409 -0.377422967203318 -0.186063796842577
-0.152497310673060 0.056715923036364 0.115771645875566
-0.026556187808861 0.032274184513259 0.409415310515074
0.017247906052420 0.027088999104845 0.038647511551185
-0.451395262484221 0.293183595281167 -0.293433234123265
-0.464523081326301 -0.067614327298770 -0.439671894770519
-0.120046939216104 0.002795456816871 0.099991094673177
-0.122182787972014 0.122536834812250 -0.003976973494434
-0.271357922972976 -0.372027128872493 -0.042142083049301
-0.578587838297599 -0.170242663953699 0.039999540376253
0.250548902070078 0.194950766987505 0.115142575442005
0.148914678229172 -0.141083333165441 -0.137944433156488
-0.147814137948109 0.084567377640804 0.142070153392151
0.032236632154395 0.185677515988045 0.187929215491629
-0.169506141149594 0.010818628156008 -0.263571937285632
-0.049443496608534 0.081396385854028 -0.169742666636596
-0.225729557131153 -0.337567505653746 -0.269785237736310
-0.405198706517626 0.242343093601808 -0.405606688388988
0.028919886720225 -0.200895461524911 -0.450877739809598
-0.197060870361167 0.066632312411544 -0.420448245853969
-0.133131135390593 -0.034321961235989 0.408730174856727
-0.144541574733855 0.002950964722877 -0.281042438451853
-0.212250466603785 0.039201761469533 -0.247597395155450
-0.542512786464022 0.008850129021486 -0.187930843143938
-0.135371796746137 -0.080361149325268 -0.174863052020212
0.079080090154522 -0.280454385848658 -0.000565923294829
-0.159395407688302 -0.040706144976887 0.056908525776261
-0.487728758746782 0.064932778558698 -0.120564041074938
-0.136590451536859 0.025433977288253 0.420033131789550
-0.261445719881018 -0.011084919768311 -0.542393098526410
-0.244306527121776 0.045608644045786 -0.279511138741371
-0.089963362705683 -0.475405409482240 -0.063089136842868
-0.248050584177071 -0.377905163212661 -0.162019687292382
-0.445052610985320 -0.082596531901048 0.076192261112070
-0.285581460363656 -0.110846622208684 -0.536110111603806
-0.283767944114134 0.124025719494221 -0.505537598334646
-0.132329150790128 -0.365111988731271 0.177858555413709
-0.269301806198796 -0.318626688290778 -0.231767825079662
-0.530531747152511 -0.179185049175789 -0.060235936055466
0.060552625611329 0.012495115793955 -0.481142268502582
-0.152541147749289 0.122078991414586 -0.505702164185911
-0.188493498706008 0.005186816825247 -0.489154673333525
-0.066201208497050 0.043657373841942 -0.103558695769731
-0.105345387822086 0.091523619697445 0.409890906304531
-0.247758579492727 0.150637443658626 -0.326932607287205
0.025282300610096 0.002126575455155 -0.396215117283111
-0.261345994869193 0.375327232818478 -0.029232324303852
-0.337429046419824 0.031161134015498 -0.469616666310588
-0.172600816305274 0.024078548288561 -0.247740987288302
-0.289107450830184 -0.155797467264495 0.050593442473923
0.085096897449070 -0.279941922400867 -0.351277318333511
0.292124965526368 -0.134019965430428 -0.216169261839585
0.038373154784977 -0.413455249324315 -0.225847416048315
-0.139929495611893 0.058855568208824 -0.026337598596160
0.216515342724871 0.242725273728504 -0.012154455384914
-0.189937489568949 0.146652213904106 -0.177031116826154
-0.179888292433732 -0.124584984649281 0.168523671905973
-0.200765498954167 0.112696779716869 -0.551758901091418
-0.137756629836511 -0.072004562731088 0.423470068128337
-0.220554886409184 -0.290889909134353 -0.183765731245699
-0.314924517477857 0.129659919388145 -0.218863100794823
-0.138817252983468 -0.035723734822550 0.285422263177792
0.131227363335273 0.053004881174582 0.277792017898250
-0.032036186966303 -0.010434059578179 0.209225946576533
0.145933471529451 0.152229160797413 0.063330075407729
-0.245514263943833 0.004746160159126 -0.487896472608492
-0.210397000723233 -0.042775021776139 -0.021805936300543
-0.122547643337789 -0.011775917716094 -0.546989905252583
-0.255105110279491 0.001680856468868 -0.349258868098038
-0.187446506153417 0.291103872152010 0.173893161222087
-0.194570666228412 0.008321608957423 -0.313127942547017
-0.400850595440914 0.210108604844232 -0.017065977999892
-0.177477007149460 0.009198128707877 -0.546498351202029
-0.011780705433627 0.060500525607150 -0.351409369924342
-0.124071380543452 0.217166008827033 -0.487821495542691
-0.130134832739189 0.033540373895445 -0.572747568560005
-0.132205215728725 0.016529264864594 -0.241464781565569
-0.133788349054695 -0.007397773349553 -0.307662895552741
-0.025691453491852 -0.025263644809013 -0.204754654241038
-0.228981358689686 0.067715996030378 0.189202014593931
-0.138335577016313 0.136138894572315 -0.211989288323442
-0.199913371915139 0.043845558879240 -0.011907084952531
-0.404921264619184 0.174997833365236 -0.270871066890652
-0.141183541445122 0.314434510385886 0.284706244508335
0.178123389192977 -0.197658694427572 0.210139478021811
-0.043662962996525 0.004483298275504 0.061774076288435
-0.547684918186553 0.097098823616348 0.187427544477721
0.084368714166887 0.204815610939141 -0.133841810010362
-0.278239490630340 0.048189990975458 -0.114446983186634
-0.153615886722312 -0.041406534599840 -0.145494930143214
-0.188477760782597 0.025995196009696 0.246847345487294
0.000899809163403 -0.017457747293583 0.055570581043170
-0.137619212224248 0.120955944709351 -0.162377205963938
0.202699338560917 -0.030866567187448 -0.402779583975565
-0.114407407818246 0.005747189678661 -0.314298286380887
-0.504624359200379 0.140275499460486 -0.165074780878676
-0.266621631520511 -0.060068196777668 -0.128581853865401
-0.121610526125756 -0.041364863387273 0.414027554436408
-0.243068876482967 0.088328669329082 0.383668002095896
0.210917015328274 -0.154663935017086 0.185270381478239
-0.214392549249320 0.010259609552373 -0.167340438111984
-0.148100865438517 -0.001531820642796 -0.162261846661764
-0.347731619478873 0.270034010170300 0.283286748752600
-0.423451837082850 -0.289795616880670 -0.259076054717316
-0.416808743304753 -0.122197466738423 -0.446360518697388
-0.066810633201052 0.264160555585246 -0.324836291793154
0.256263366989648 -0.214115963162212 0.077406283015978
-0.112672356948517 0.146475654601565 -0.116222167134225
-0.166661171224444 -0.000238890528579 0.350897628152595
-0.156879974626484 -0.067874517892567 -0.021984511552218
-0.270561885608899 0.058504903164513 0.314457653628017
-0.263784200669594 -0.028281001029747 0.074207729299771
-0.463821505061131 -0.168470086758036 -0.321506614120388
-0.089857691549055 -0.013354931515640 -0.246767748056526
-0.354964505812832 -0.008945200165821 0.099627338418669
0.300411624616001 -0.134099770920391 -0.088184942807507
-0.222620441145878 -0.201928424211074 -0.008253676918661
-0.493905942395360 0.326798621621248 0.007916998569524
-0.101986421085799 0.016226736428845 0.287797762285323
-0.288609016863757 0.230013999703906 -0.087109488969835
-0.307630264159383 0.309666887662641 -0.345718205025285
-0.271931685962433 -0.289718089625202 -0.434547201327558
-0.100883229128642 -0.155917304640034 0.146770530473498
-0.291817339224293 0.060119255891064 0.075199311295262
0.223905218235732 0.144965484293355 -0.174057300386904
0.096904427844831 -0.209683002065434 0.072494410145590
-0.303056040591068 0.176666639774105 0.094631337298533
-0.241296672308224 0.069048117819084 0.196264521798680
-0.230349543826976 0.218221292398093 0.063122723832167
-0.278521325163687 -0.103873484249136 0.303766970266495
-0.172945380570142 -0.266440733772626 0.069308378926986
0.124860106233061 0.204297002816559 0.132363884544335
-0.597462466239622 0.031741098134335 0.087289099316750
-0.127856926240089 -0.066356241980123 -0.343057423990932
0.056467721993361 -0.290478138746757 0.167379872669746
-0.189461914322347 -0.002047251320630 -0.191534296476490
-0.385166817991064 -0.010666272347374 0.107502487865894
-0.186883137396530 -0.435493673232364 -0.201070135084442
-0.268569455164151 0.154479578973228 -0.236936845227871
-0.166789893495591 -0.014428084935808 0.073958887722003
0.125276135446760 0.188358579615537 0.064301037513732
-0.066618215727915 0.098117725700303 -0.529421473368334
-0.175596084715561 -0.007778245709191 0.051115503634477
-0.541280203041207 -0.270695470514298 -0.120423712409716
-0.589810196115049 -0.141414385068782 -0.000231858659212
0.003786128851286 -0.300222738229168 0.245735031431029
0.020957227058604 0.044724445848469 -0.462788451830111
0.048127297186785 0.105918853835885 0.058918764673985
-0.271917197941554 0.283679570522798 0.278481790174338
-0.153933921593605 -0.268314438925122 0.097151724332619
-0.204262460916754 0.042220700816813 -0.004994041519398
-0.163009575908824 -0.231283168859151 -0.489873397373268
-0.191718578514382 0.254850698629304 0.164180205780587
0.043151210249557 -0.081292621139170 -0.059167736210327
0.113272822503908 0.113639204751487 -0.464422431218379
-0.224412771087190 -0.061406726445915 -0.016738563527438
-0.102613618121214 0.072514818223285 -0.408400010608465
-0.385855399735681 0.326585885816701 -0.104632882823367
-0.327923927872857 -0.041417257254433 -0.349852492865616
-0.059538171606176 -0.011809088414816 -0.114740054360556
-0.100597469715471 0.088552414213835 -0.199174106342658
-0.228220591355590 0.004158665951104 -0.412301943159299
-0.003896377692657 0.074480331879261 -0.496860333736112
-0.212820111121252 -0.048301708468325 -0.541915118754732
-0.062772543707716 -0.182361210743281 0.348148093557265
-0.405292786587396 -0.250197633898432 -0.346085016063866
-0.162303874979125 -0.008725760751486 -0.552335725108320
0.049801456991468 -0.097166536558761 -0.019001676510353
-0.303910251623138 -0.020113427429294 -0.159504884884834
-0.234861335271128 0.049927321759151 -0.348082860380774
-0.168715021849211 -0.073682427786782 -0.157187952306836
-0.480701156713521 0.004743481541848 -0.024323061426355
-0.276675358342931 -0.125478816336227 -0.535531034265617
0.068341543655079 -0.048011344670545 -0.496615867364412
-0.048726228439419 0.301209367788873 -0.170414623441996
0.209711050253034 0.223713270026644 0.058240578396010
-0.277086339352039 -0.388540302208344 0.104063654708010
-0.048209088557587 0.125329555002995 0.398525843700170
-0.326465320969461 0.045650902266165 0.003906576269890
-0.509994729447821 -0.076239074218676 -0.093027683082125
0.202331619036617 0.026417253346083 0.187401237239852
-0.306052021672966 -0.256212609283835 0.310473748523979
-0.290329427346025 0.224392738123544 0.342009118237255
-0.030212730819858 -0.255827953031880 0.300234677007987
-0.268255746264102 -0.122608280163555 0.075331240601427
-0.558406691704018 0.245272938572616 -0.004530505999642
0.181025783892427 0.206640712399020 -0.361621309591789
-0.297692128581347 0.054294071048017 -0.181635121425812
0.093695798695645 0.053508807277294 -0.181035522715939
0.041062293896797 -0.083677857242882 0.278091705211852
-0.096393841470622 -0.170322275258377 0.113146497744965
0.152924506588957 -0.024275699965145 0.133398412460612
-0.165757031710931 -0.012844277905620 -0.273231297653827
-0.490976683047293 0.118645115267219 -0.002856339728886
-0.221482880913757 -0.156616299734691 -0.536206411952662
0.125168977134031 -0.198813454644732 -0.155409894052450
-0.071979194689297 -0.052738434722579 0.074273853333264
0.210432804745869 0.243903972942432 -0.259282404701900
-0.100616648315670 -0.123071458949659 0.084684383282019
-0.327281713582147 0.066629001513270 0.077934279976623
-0.233786105229123 -0.021567188290265 -0.201270031171693
-0.217650262833253 0.093349050219220 0.180281423404726
-0.080009997925321 -0.146739241496117 0.392218441722614
-0.184994571113058 -0.066007743716839 0.154621990028338
-0.184741464877002 0.058899039214254 0.067266471608609
-0.141894297375106 -0.007201530687145 0.072093968518905
-0.149517571397950 -0.007410993843919 -0.239150512996554
-0.187385486365210 0.016413378149139 -0.354459980804504
-0.222654126245826 0.231636490006997 0.261109362047889
0.052284519928511 0.052533747153019 -0.085652787653625
-0.217652356426550 -0.001174515176969 0.282797623428831
-0.177623176493573 0.005535273570726 -0.244087450279494
-0.571220371750829 -0.188945606277464 -0.214936587202619
-0.269130609563106 -0.108791938327064 -0.508007775524081
-0.213868257059455 0.293397400540213 0.055621174607526
-0.082728664148949 -0.131550398581032 0.316766753706776
-0.147694096326093 -0.268772753042333 -0.444286014007110
-0.155670256293305 -0.037280396915176 -0.293889313408819
0.093687438007366 0.004167141205063 -0.425337716977069
-0.178342261027578 -0.384228558832352 0.112384930925401
-0.184691766602766 -0.244462374924585 0.203963445887490
-0.170280716354135 0.077858173141958 -0.103338006179991
-0.368708999124634 0.406136367231766 -0.197023222733303
-0.312079631849213 0.011814611169997 -0.539891675729107
-0.096162681021559 0.253332688349244 -0.333220270059119
-0.033854081379865 -0.022552923196353 0.303851145475928
-0.529701864001108 -0.105215792377812 0.182285045464991
-0.222046750017385 -0.211070881379297 -0.426004647732101
-0.130122973328365 0.064830176868965 0.021343823845351
-0.187953623083182 0.044157574770608 -0.150837187640950
-0.505473607664331 -0.268457562800813 -0.092132854007958
-0.151214116726068 -0.000316975287788 -0.257490292519162
-0.113249498554467 0.466532442201520 -0.157977662244742
-0.136010715886304 -0.088693932778770 -0.561540713125654
-0.078717846740327 -0.019150730651972 0.408535917073778
-0.158545545500462 0.144504677135281 -0.290807616914128
-0.060027792829213 0.451052939075794 0.070332572103463
-0.056300055757536 0.121161740891971 -0.283595470111252
-0.105490028884778 -0.087663453280680 -0.019065702054722
-0.124015898778519 0.061590613716702 0.365080129639126
-0.436319632254514 -0.380996833730598 0.007344450933077
-0.210302511042809 0.185973236704673 -0.314978494164705
-0.139179771796050 0.008333309600223 0.029467238463384
-0.029954436773668 0.372185805133136 -0.176306729402275
-0.155324148752966 -0.137086890283486 -0.125768592497707
0.091188717817068 0.028444427980475 0.045928709120773
-0.497105348162502 0.205641892619502 -0.088106495605312
-0.116952819011954 0.230365234083078 -0.286491360437090
0.159992360106114 0.275439047938477 -0.324590490224294
-0.086893462172690 0.102626642882355 -0.163063468564100
-0.152001525773470 -0.135997588588590 -0.174690020003358
-0.134504046587381 -0.168848458344263 -0.503691343793135
0.168250222562055 0.182644817400729 0.058422519901482
0.004415002289954 -0.192627857574555 -0.028336488646824
-0.116929141926100 0.084813962636150 -0.194686251389404
0.234889148083649 -0.101289547175760 -0.259659230287550
-0.366734967762764 -0.095273612364067 -0.155250218026690
-0.251747566962687 0.029039878400929 -0.050441997579350
-0.223943896159300 0.122432512318167 -0.155274047134861
-0.030782708127959 0.383956279875853 0.120503309536764
0.184776747844175 -0.234501451418832 0.061939783415341
-0.351250856945233 -0.391515321341042 -0.190209802585231
-0.063770452356275 -0.003910562599690 -0.093568265541270
-0.221409568451836 -0.140760948411021 -0.301599781704927
-0.291938371627120 -0.124563893478569 -0.253740534630463
-0.019689270022633 -0.170846273026222 -0.475556272957490
-0.029586427204879 -0.083226396184525 0.029080868571139
-0.125733773077221 -0.226165916667324 -0.485622026494191
-0.520884720642182 0.055434031394523 -0.045661957367817
-0.162448338413919 -0.397514322987828 -0.043582469333939
-0.233967816921766 -0.365859697908689 -0.382553956629735
-0.060973593988589 -0.091039744590238 -0.100491920998857
-0.303232084387141 -0.287489815273371 0.264583800837379
-0.190537973684572 -0.039655069824630 0.058860606111167
0.287847704693575 -0.161518344253683 -0.027133572203843
-0.528077963956997 0.095748817651720 0.219794384647506
0.005913109461835 0.063633133513939 -0.381221958087681
-0.058107111292911 0.134511123360192 -0.479482178298303
0.003908180663476 -0.234193358501108 -0.146968554808182
-0.028489891526010 0.025017534238387 -0.371704669424571
-0.325086599463130 -0.325604408660363 0.164924494455121
-0.101397306795000 -0.004941466288256 -0.416748253904827
-0.055872354769751 0.021304612260765 -0.163606228780296
-0.245164994993504 -0.137844772426687 -0.099216678063491
-0.017575849156031 -0.418986427971130 0.132879100546288
-0.156757094127328 -0.094729925705369 -0.137349636601952
0.100361209892594 0.057946812672877 -0.492485664893065
-0.364304700543928 0.173284148547310 0.022239643942313
-0.167226203957957 -0.022330256804436 0.207666909406060
0.119517119848875 0.170614515382653 -0.130762941672332
0.197093919665482 -0.094908227157455 -0.183906830343138
-0.262696717189184 0.407164587669932 -0.251284885501257
-0.328089030524480 -0.343707084735120 -0.333370728345470
-0.451556872749147 0.332193614358940 0.000203833675604
0.068782262804626 -0.137607885336539 -0.016196791494183
0.036374608041376 -0.088240037844910 0.175519437623242
-0.147735670770316 -0.009274489337737 -0.576548160983204
-0.155410089720220 0.021085457625273 -0.559216560799669
-0.160202651183281 -0.016329435001344 0.418611033828569
-0.076057517921997 0.256726546632163 -0.278803448682915
-0.189755878560870 0.009169684264049 -0.245661867181150
-0.269072619686394 0.115765765276077 -0.436994144463253
-0.263490108586024 0.044184574205252 -0.520970109354403
-0.502068192422031 0.023736699834898 0.095867396054584
-0.152953736095510 -0.015025259779237 0.307687316769473
-0.274032613788043 -0.077561154604113 -0.186793656677682
-0.100276750073131 -0.110932368291096 -0.465634234454865
0.141869190565703 0.060766561823800 -0.454884539427659
-0.092699269854801 -0.082937673669738 -0.048516290899620
-0.380919150814321 -0.350893957163992 0.160796909564017
-0.393661775746361 -0.228203740979995 0.140601592325282
-0.419368959748891 0.388917565805131 -0.144449880281678
-0.006037186439698 -0.119968561922483 -0.343616796124113
-0.150881554042292 -0.049955317383344 -0.554033275042716
0.044994886952968 -0.026822125597362 -0.326361421458895
-0.345958643892002 0.314349642973696 0.218945242599534
-0.191807121418812 -0.319371428031301 -0.132945675236729
-0.176137556901650 -0.041795134478600 -0.157287602082536
0.157666529694631 -0.040083738655219 -0.235338660138142
-0.114289782679123 -0.097309206209914 -0.229645067993706
-0.143272920953949 0.006788913664374 -0.160574738284285
-0.196731878942312 0.051098561165206 -0.046921239528073
0.030584485304251 0.011148973248883 0.345816744788407
-0.114554330513241 0.020712328828339 -0.249521344046858
-0.155084819958487 -0.348243908060272 -0.341818639537144
0.232693049620509 -0.226710059664817 -0.235414642888366
-0.433154559532603 -0.176687655013657 -0.353187110085376
0.204528695487989 -0.080268953136814 -0.398230110489127
-0.115816124297266 0.440219969149851 -0.139235355885090
-0.272417100810223 0.005031098295607 -0.223700770229875
-0.106931006148416 -0.057759161934976 -0.078608651917842
-0.155480292204704 -0.003954220460884 -0.425857268800118
0.016170564944748 0.131510076059365 -0.149427394095984
-0.085404786218896 -0.310417738380862 0.265167584034239
-0.178086712468884 0.068518701475517 -0.229684421539380
-0.154545677485268 0.032363003039816 -0.241084979553977
0.083222279146297 -0.145707544603878 -0.217682026288720
0.015158818065638 -0.036559594006051 -0.519637004689325
-0.149699742346781 -0.460997078612286 -0.153305690104817
0.073355194912436 -0.303051323400551 0.055441795565399
-0.376524511882740 -0.010927357103740 0.136144895000178
-0.433144869962994 0.030804107902446 -0.462260440823379
-0.198974233071061 0.019125317212206 0.379383148857166
-0.065103469268602 -0.403326354748907 0.140877840332395
0.001033494736447 0.276362168019767 -0.385953968135742
-0.062073789222745 0.017040807966196 -0.561857663425334
-0.173491124943684 0.075753479039474 -0.181424653938294
-0.113361316142144 0.031656712009442 0.101934544112444
-0.126435041264006 0.100829116959292 -0.013497847697482
-0.118170522013132 -0.003881206579375 -0.417523054217042
-0.058283466304715 0.196381122632523 -0.498365551102103
0.009987335635541 0.174540120403790 -0.414134323171850
0.145163979264215 -0.235469653781239 0.144534639796448
-0.065657544603882 0.144688659043793 -0.287948837466945
-0.445143681588371 -0.234233899576345 0.073490614959975
0.021283609970727 -0.059592211941699 -0.446858829462654
-0.195131580388555 0.110141565384023 -0.157698472114580
-0.311997480746248 -0.182305137237022 0.000427186622223
-0.150555358936336 -0.000684062541894 0.121787709792893
-0.306008840870825 0.022366387305711 -0.288113808160867
-0.339194272239005 0.306168169174545 -0.362448324969573
-0.466792722226491 0.352818485761586 -0.149452018877374
-0.199328754718816 -0.000141226434000 -0.272289883164791
-0.462526014541686 -0.181032515109174 0.065045536566401
0.124428032853042 -0.386969317216245 0.018756475487036
-0.523505284656318 -0.017997488863339 -0.119044820836930
-0.154779717905121 0.273483375649713 -0.049257303624091
-0.181914725009562 0.127024437096216 -0.176648826691490
0.151320030466012 -0.242018735534450 -0.285230000876855
-0.061687925972628 -0.053801310641055 -0.067318986966211
-0.151267255324024 -0.013647526406657 -0.244660607171313
0.129404135276918 0.023594980766911 0.103203447359227
-0.332443401683340 -0.218599833331104 -0.059825953695919
0.003736875857482 0.106970865633923 -0.496577167092680
-0.262811239880500 -0.114013498321180 -0.499260616794193
-0.279329765170037 -0.136024969714582 0.027283105414122
-0.122644711331641 0.164064791570977 -0.192904677284278
-0.352484225693163 -0.406735878789732 -0.115778276071775
-0.164063778119585 -0.016102715810274 0.101928630373700
-0.113853227721485 0.153872847029099 0.020805508004372
-0.124222654553202 0.067103428050463 0.184813617783571
-0.104184678768874 -0.037074148497817 -0.216369798891776
-0.161510045832068 0.275928780843135 -0.335553386557978
-0.364271326906334 0.051216743190663 -0.460710737675896
-0.346047519760808 -0.374609654193993 -0.031805984608013
-0.073390836727044 0.045771928958011 -0.139703616917318
-0.138513053004022 0.416005596031764 0.114885453777349
-0.391415045960147 0.307630094993993 0.042205112981350
-0.173993347311698 -0.012361410035041 -0.328474064541292
0.002397359624562 0.061894518715250 0.101228800833661
-0.100233809846271 0.059601674054616 -0.248037121070524
-0.554960407674159 0.120652971869292 -0.290364250770113
-0.092950668650113 -0.096433596111452 0.080437470388424
-0.211547954566598 -0.090108170591490 -0.105304879732826
-0.262843403243295 0.008390818329905 -0.081253550489773
-0.151633820711707 0.003839423654510 -0.265301087352132
0.038841902121439 -0.048030249252664 -0.434171643611711
-0.589958190476604 0.032835708603327 -0.008697846183095
-0.335219470070185 0.025329764384393 -0.483588342542888
-0.081171794018939 -0.131265947523863 -0.378980285078181
-0.138044360996933 -0.158452087991134 -0.277638008281129
-0.094487601996239 -0.073529526008447 -0.381577418261159
-0.091493928439556 0.158905533061721 -0.136787901001245
-0.147849198659258 -0.030119228896433 0.335925795397445
-0.099888134876021 -0.018071670462211 0.426900997179608
0.054348674837316 0.010145205216472 0.330766070255637
-0.158511654426603 0.092157556269725 -0.232722490711839
0.207798678272234 -0.220941451493438 -0.145491436278100
-0.424222698546375 0.367816793431475 -0.226497558802992
-0.327069506477325 -0.072434880659659 0.385285298535596
-0.097765401091175 -0.069727846567452 -0.049488764817271
0.101187145821162 -0.185542991490614 0.052535212472518
0.080678175265153 0.033861423739936 0.190955101179956
0.069605538073296 0.336975392276146 -0.055365838440848
-0.425638688861398 0.284797896324088 -0.353287103424429
-0.330626311797609 0.114439981884145 -0.094772834071291
-0.329564152789395 0.190563400296812 0.308734523594399
-0.157014913618227 -0.132478353656631 -0.075108493176340
-0.438335996077726 -0.345014566926604 -0.153648038409895
-0.163015618032250 -0.020191790616218 0.026289730140193
0.028856162668526 -0.299598129141710 0.270491239111110
-0.575350236699308 0.122823942007310 -0.210285286383066
-0.178448626626006 0.464352565859388 -0.187568431758089
0.061344221258962 0.368823038746408 0.158746291710273
-0.198661530746649 -0.405426125679986 -0.312880433365680
-0.207941458542962 0.052303611915748 -0.553084042332055
0.036200104842323 0.050400102134353 -0.296727815528019
0.023010450483602 -0.013874527685868 -0.080309383041944
-0.225037089291558 0.094505036231653 0.199414980505007
-0.028768358296790 0.059457944602696 0.046221003581734
-0.340602923800757 0.013913329880336 0.264965067941965
-0.357848500455057 0.294335822938282 0.025241287835927
-0.572178538078981 0.146868915137693 -0.142430849454871
-0.218084628922299 -0.118165597629424 -0.550953980327968
-0.049972693603843 0.091095916318646 0.242656457956823
0.113917216122117 0.114940643299806 -0.466472863733898
-0.231749298285989 -0.441255398712545 -0.217750312371204
-0.131779384015910 -0.062618490531231 0.166691983066249
-0.151937708707809 -0.007634223397664 -0.167407789461691
-0.121036323347992 0.036969170864658 -0.485390289157257
-0.208812182337387 -0.198883562163618 -0.485840249061628
-0.315143977541000 -0.000749244056665 -0.141535067290366
-0.595198778317586 -0.151887881489715 -0.052139547591710
-0.100810057719370 0.071330603489368 0.363607157694720
-0.014853382429802 0.144973181810118 0.068088604359690
-0.160944414062469 0.016446672548102 0.041771840805214
-0.114786302094280 0.005434519286958 -0.153139262000042
-0.244101294431312 0.158825158072345 -0.269841404880167
-0.133619885631939 0.031197918804758 -0.572451620142056
-0.037563457216861 0.170336446073962 0.161574985015068
