# This PCD file was generated using the MATLAB® pcwrite function
# from Computer Vision Toolbox®.
# .PCD v.7 - Point Cloud Data file format
VERSION .7
FIELDS x y z
SIZE 8 8 8
TYPE F F F
COUNT 1 1 1
WIDTH 862
HEIGHT 1
VIEWPOINT 0 0 0 1 0 0 0
POINTS 862
DATA ascii
0.175874776386040 -0.009362792175591 -0.195959992238455
-0.043152085651229 0.013702666812083 0.126408882926622
0.103622569598204 -0.001769621210306 -0.332345457901249
0.105880983639247 0.068855789766768 -0.257201260446538
0.451103608923553 -0.197010225148233 0.244671257049007
0.198765708934882 0.022163463202900 -0.233261083391359
-0.069220983130332 -0.114071460434377 -0.179736051010486
0.031349790582194 0.143061470213521 -0.086613021568084
0.083485811226198 0.074469573252889 -0.000421730182219
0.151908894304145 -0.002921770174943 0.389594199254763
-0.025244717804303 -0.113647626544825 -0.443085803786470
0.113466861493110 0.058051940636057 -0.116556705316158
0.104707977773809 0.039542148370454 -0.179925786754117
0.312399319552124 -0.446611296016602 -0.160448184038494
0.149048303736349 0.022906691634594 -0.161688613032578
0.362502609482545 0.169000782976801 0.196329426059151
0.451422280135255 -0.249422152652082 0.217182069147863
0.554648082332300 -0.127858930266436 -0.117580203715836
-0.214123670716731 -0.106502039766936 0.221692915530442
0.097045982842361 0.163106822630950 0.271644802386891
0.134947742692579 0.001434500737758 0.419877268900587
0.150590312871376 -0.002065738057464 -0.551578724176379
0.163534141052235 -0.018953734546474 -0.375875716533274
-0.090833074581378 0.330921954527901 -0.286282502392494
0.174383914227395 0.002762729520391 0.021532843018264
-0.043415864134251 -0.254618412993843 -0.397128672180474
-0.009443682477361 0.081819065407926 -0.144949390964277
-0.038610945487417 -0.191956986586688 0.124298450076325
0.270081020672472 0.135248829528418 0.008915308007794
0.036820921908188 -0.255159827431056 -0.270701583354971
0.364613541364874 -0.240337753542359 0.214354601003298
-0.171638861551211 -0.153222826177000 0.182352316470480
0.100845691472762 0.177646709808074 -0.243519024384099
-0.192678136431932 -0.276017337277753 -0.207766948206206
0.522595653803046 0.170669286014782 -0.001497554209858
0.268453376131370 -0.141867126009974 -0.532353430270310
0.446359065217893 -0.031159180047990 -0.224283987760807
0.568516747632479 -0.128771819113195 -0.046044814136580
0.358545987432096 0.110796170108850 -0.406516993591371
0.046697536106861 0.228611023221313 -0.385947080092478
0.204915878959008 -0.173763862848220 -0.433321229625866
0.147023695689895 -0.008611980129268 -0.169705098189954
0.253142580449829 0.001480356018821 -0.084430822471657
0.152461200396112 -0.002973434047749 -0.315001237581426
0.179361415182934 0.068264540937584 -0.277489642818609
0.153779663886279 0.407965680042454 -0.156126720673357
0.143967447608766 -0.072631959690138 -0.156477112711162
0.146834504244505 -0.009987857259975 -0.327747373417276
0.179484579201575 -0.048702688953284 -0.120731879604022
0.467885696024422 0.004985196070066 -0.122367805253256
0.205149626878135 0.064671987777668 -0.072576372007147
0.576001011270575 0.178932823119319 0.054477246153948
0.238563908515459 0.250495006956598 -0.158684544245903
0.238784786548280 -0.060871420056419 -0.132929785571446
0.200916293824940 -0.378352484551954 -0.215469534784832
-0.055755211738780 -0.058514504306219 0.105248934651400
-0.020720647048544 -0.372232033800691 -0.186642358473884
0.597058486192275 -0.122829560522526 0.031715721105718
0.111125164169046 0.143153157152950 -0.133160620019404
0.118329583313309 0.388408074932720 -0.304697190918037
0.149886780008852 -0.001606831777024 -0.326943712251469
0.009996250843785 -0.406519743915369 0.100998552611626
0.256438305557986 -0.140745996697155 0.324020008581246
0.084461945844787 -0.027776343296592 -0.083197128547249
0.160465277435687 0.196041109671478 -0.072460974627246
0.154533663366535 0.006620535378462 0.227374345720864
0.042538556311673 -0.146115012729075 -0.149028853190120
0.194591996835713 0.012553787429104 0.013859126282435
0.156155301388842 -0.040022161378351 -0.348109634603953
0.325838544646773 0.013117858624113 -0.345952219292722
-0.011866454689739 0.015825874881816 -0.025696497456814
0.503664378140551 0.183986458641433 0.064930652834386
0.139065532740355 0.205086781318493 -0.356265153418976
0.379610373715463 0.346197598817395 -0.273640063074564
0.083237986506786 0.070841235459147 0.127980069903040
0.047813848241043 0.137630828370163 0.081040830860783
0.114243656547613 -0.032741810139204 -0.181529007330452
0.230591972385531 -0.445725182196323 0.004562638055255
0.147882786594063 0.038075499854863 0.328908044796088
0.452637935498878 -0.340362356861595 -0.189600859387793
0.140670533320884 -0.066922996009614 0.330303046083038
-0.195178363867462 0.066313901114295 0.162510737011508
0.307335994118346 -0.154941903424182 -0.329888709127623
0.478260284946810 -0.105769529298681 -0.358119665447671
0.187127932973827 -0.296040520532380 -0.276184142665954
0.170540727907376 -0.076230899779137 0.020919291323059
0.013147053272736 0.049248684499023 -0.227786587804728
0.361886093157486 0.289106287878879 0.146524826303126
-0.013408775743315 0.420900687789514 -0.246185201897321
0.137286412932020 -0.075978100760495 0.368578830757635
0.031613845201211 0.100111151513509 -0.493887895107433
0.135373864174982 0.022909424786507 0.397901227839131
0.116666572230875 -0.354117740371198 -0.279628270966259
0.387982893600450 0.123089055474432 -0.213619076116398
0.305519101313459 0.172926854060955 -0.507849449192423
-0.096883996280171 0.340872388140224 -0.003720725097396
0.098098665859965 0.010850692719905 0.178330851661524
0.554637279940683 -0.091788740334479 -0.158490593660860
0.142536720055645 0.000301934498493 0.413858309737648
-0.110876698804713 -0.028199268754302 -0.489263000547762
0.058661162506675 -0.069727375861130 0.260633517141140
0.518008982659868 0.147430295385452 -0.345238209535878
0.290841504181917 0.094915763869621 -0.268110018244398
0.199777543493426 -0.360042345790810 -0.117199016663354
-0.279883490929048 0.118274980890840 -0.141283351545863
0.378753284056379 -0.189277145691145 -0.150680490777791
0.059496219385887 -0.034116594063955 -0.165861812828385
0.434071070526200 0.193110947572673 0.269435634102644
0.095869364066992 0.376861412386153 0.228553213049063
0.158640894506734 -0.018857144066591 0.058916909151453
0.043462842171126 -0.468879259091284 -0.086361943596598
0.281852231443234 0.056437890052915 -0.264011946250326
-0.015265285853175 0.226656514709889 0.096688558346698
-0.085753336758027 -0.018257730246466 -0.262634921212118
-0.026946752819230 0.081194768191495 -0.289914017653180
-0.089420072009297 -0.190547151367178 0.292638543252816
0.269650235166783 0.171174588871365 -0.110787945072318
0.102485447367159 -0.035652136011643 -0.315016945191188
0.112895987883421 -0.447029875648261 0.081067175540936
0.432545936128225 0.099090961056585 -0.205541277041096
0.343944910348935 -0.254323214502913 0.283488522331480
-0.193503507779188 -0.122972800879684 0.252211358424125
0.116156837664427 0.039716348392236 -0.337117014562771
0.171226514841691 -0.035778763359509 -0.010421705068600
0.202833868242650 -0.107798439011984 0.060467860435479
0.288509278366488 0.067346657269485 -0.121581259095103
0.412575234343440 0.033409715495676 -0.217379410956079
0.165545698225605 0.007137289017445 0.366867781389016
0.271519834347886 0.148553471355550 -0.012367187596197
0.171518694338305 -0.096535918628884 -0.430790992737897
0.264430129443075 -0.378618378574011 -0.080682305210361
-0.067338738690574 0.145881144513267 -0.277228363391606
-0.100700180724697 -0.196497660394145 -0.268470224005438
0.208058313871005 0.399153107027415 -0.340305626359354
0.101660230375425 0.018521191311027 -0.518796206785165
0.223026718864024 -0.286689641458847 -0.053326849624095
-0.036796936379859 -0.088616906246678 0.341364181246612
0.380575574550287 -0.064947025618051 0.159201927196895
0.092933569523809 0.103982877688155 -0.233335894308127
0.105126528859440 -0.183662101342509 0.293503133820899
-0.050170584673004 -0.011894225270129 -0.466487934407272
0.358454159331333 -0.277203120833758 -0.302005231290946
-0.122453015247127 -0.140545667147736 0.236203463141878
0.245188963161551 -0.032625542395654 0.093315102075717
0.466929704752069 -0.035193991559443 0.296930669836249
0.102695925129602 -0.182532053799441 -0.513973888028870
0.462656504935079 -0.133919655034370 -0.145821189661955
0.224202046151667 -0.018875321044898 -0.228241780113231
0.090007126345259 -0.188287117088319 0.186832619879121
-0.201612563684491 0.136355205107453 -0.373389754936860
0.021822094602882 0.052603150235497 -0.081038628684997
0.237284289541461 0.357075698261574 0.051507789667120
0.277720939799778 0.025934835922764 -0.452247543664813
0.139262579940231 -0.175783937518726 -0.510380145507560
0.353040666663329 0.031511917843922 -0.251399680894562
-0.154489095392024 0.077905564340287 -0.412671140292327
0.149285176480080 0.069748191735886 -0.225819384547062
0.146024779059374 -0.009714845397943 -0.165543097449201
0.007667905813528 -0.135159550472786 0.064962923386075
0.029137324156448 0.463285910695339 -0.105327297856194
-0.179904078911188 0.046788493120957 0.281693866463490
0.212154695788063 -0.163446310240323 -0.519791369482745
0.155107888349058 -0.004106173986709 -0.201070425993766
0.462949826391365 -0.020301899098205 -0.210481611083167
0.025566197303216 0.020158476063122 0.214746093919907
0.062223894453733 0.223029019425090 0.292547107887579
0.090886442486254 -0.064507628815269 -0.060905667384886
-0.066776482549788 0.151848597070130 0.135398666555947
0.255036569502051 -0.378620876599285 -0.322092351632305
0.179113242465575 0.014482981550549 0.016422107706671
0.023512989843587 -0.042131103928915 -0.114533068078159
-0.100957827993832 0.093285919437273 0.249493119195883
-0.119614700614815 -0.211406169758837 -0.382738360492258
0.184095019264790 0.004737284712196 0.223727608293682
-0.136429886736915 -0.012317699931984 0.317254384740331
0.443038985564523 -0.256561739656702 0.068709894017268
0.084381339270496 -0.365772792914574 0.106158549163449
0.315268704844407 0.197404008047626 -0.096533169395789
0.272281864999404 0.118434761162184 -0.207193962415062
0.368761529740291 -0.213295899602406 0.312374703468306
0.133729224524184 -0.161520510785040 0.079167360352147
0.107093195797191 -0.038620013114703 0.418048169733270
0.592253973327851 -0.011374249996727 0.090206468424174
-0.098469553921306 0.065482559306643 0.031783469480756
-0.142245061115358 0.259943443377923 0.114289416122193
-0.018024309037263 0.035942482706886 -0.536962549943318
0.168872863977763 0.214179408988201 -0.499946271923153
0.468836576264619 -0.072669027045970 -0.226122487900207
0.193870189027756 -0.059073412423545 -0.525403257590545
0.488198889961536 -0.267177335347703 0.116387534982565
0.015385722531834 -0.077314559971369 -0.196009191084323
0.112931216186614 0.022778775052542 0.385109862843903
0.287903197335424 0.095750848618379 0.268747060196927
0.189715572759189 0.065420198329834 0.281183118450708
0.138135838644798 -0.010167871463712 -0.223501422557557
0.439760026852021 -0.201008261546002 -0.237459380147691
0.074889192743794 -0.044788516773216 0.083649716594215
0.088923164169243 -0.170496010215647 -0.289961171723809
-0.142121923337906 -0.114498612651302 -0.403526118671801
0.182796895717509 0.000635456967769 -0.212566169781679
0.041847981358273 0.103294567699587 -0.017523779137940
0.149723560490662 -0.015855269572483 0.136719437981552
0.214619612493579 -0.032336703117925 -0.198891867337585
-0.019957559852885 -0.277225913195624 0.112195070976447
-0.246522790046647 0.094461911759315 -0.149088436238462
0.241026745829582 -0.013951441808187 -0.447492661419818
0.369704725762062 -0.056691778195816 -0.192012924977175
0.316495420279965 -0.322841220879361 -0.295461840665390
0.148780376289485 -0.001153521358838 -0.315784395635715
0.166322393781623 0.079482184679787 0.245989300296814
0.383883233764814 0.013586272223013 -0.188023883819909
0.135816622097227 -0.034610409402971 -0.182005721297217
0.064604318566385 0.094992163347523 -0.516473123144666
0.498651452300610 0.276554394250691 -0.142534147628166
0.534990810833095 0.148886163861100 -0.073289385650346
0.101625827581101 -0.050931186522033 0.002201934171769
-0.031935812297956 0.094459705008329 0.311985155656579
0.036364055521274 0.222123335625234 0.030748688130653
0.217175890530217 -0.148197730403946 0.261948443066351
0.060238692790029 -0.324078645163465 0.283191477334755
0.073587806389526 0.301917558790868 0.220989022416761
0.127611339345490 -0.012714643523890 0.424123107975512
0.135772459283305 0.018968232209912 0.293910500481575
0.317776841760068 -0.205639968207329 -0.161092978579370
0.198512060570082 0.172520355645584 -0.153089880772518
0.346212137911674 -0.010071215369708 -0.495589496984987
0.141321999385107 0.274733424481160 -0.130877088013119
0.182865747867430 -0.250866958229277 -0.393179385295021
0.182626774799089 0.450573581512988 0.099391896995894
0.135697616402030 -0.342654019380789 -0.411397379031075
0.042494296945847 -0.020880064936417 -0.224649189122044
0.252909719486664 -0.040231282592573 -0.344851542893054
0.149281413450458 0.115535281312690 0.271029248652718
-0.103180673589198 -0.184647764876572 -0.181341126232164
0.266337460398222 -0.427829549128255 -0.035859945989866
0.195083727937655 -0.157610819079898 0.321725493981251
-0.000560022842058 0.171768033898552 -0.123314257157729
0.361302798368973 -0.169469895746260 -0.083457754376092
0.363698479115868 0.241448881300431 0.244412605027496
0.145346984651053 -0.066591599197989 -0.004136480354620
0.250001996979848 0.022275780551680 0.028268922834991
0.343164299392464 -0.217216402590507 0.211856295495800
0.170653616543489 -0.194530011191506 -0.259378689292148
0.044125462249932 -0.074052440314007 -0.361495553865176
-0.025545782433993 -0.040699348688125 0.079824857318411
0.058144749822559 0.267639476883075 -0.196576578994677
0.166784227318103 -0.047105774040528 -0.017206599466584
0.189779214125276 0.142083734880134 -0.038078064092401
0.175177327448494 0.054013173895135 0.047206069715681
0.014967912242983 -0.040954055298293 -0.358085446881030
0.154142236724713 -0.027921115493269 -0.574533786224765
-0.113165133090344 0.087687274901162 -0.214529426098194
0.100627049213991 -0.193651154743942 -0.341469873113550
0.121924216726610 -0.179572187813870 0.263631279846076
0.193509219649352 -0.480781866420665 -0.071357724946987
0.215246118910311 -0.006257734205325 0.293816537566151
0.439762340862519 0.037419418010748 -0.041960165434229
0.043064716713786 0.077454502709547 0.090397301509112
0.124646230976417 -0.075613331994186 -0.238414088071339
0.241647134765592 -0.032056702440368 -0.215084520506134
0.370451146909380 -0.282016563306458 -0.183843528890378
0.300474658250202 -0.182490961092457 -0.127947796570682
0.118868542147153 -0.116930255411021 -0.533731433470974
0.302825186345451 -0.222489561525388 0.198400465332846
0.153568010563191 0.004146576683408 -0.281777403315273
0.107447532906783 -0.033723640544612 -0.155062499720275
0.263272161417640 0.166309968151421 0.373674202143122
-0.025792467916678 -0.188770494670656 -0.386672883752399
0.604285031865212 -0.089676338374593 0.037083918933694
0.010964226477884 -0.451007257234008 -0.173049766918113
-0.123908553629120 0.117912496430318 0.152494076309820
0.173264797232049 -0.025013067605101 -0.224193468476123
0.140528615326383 -0.014485503956783 -0.357645604978062
-0.112197406506203 -0.159606125839391 -0.395431593350906
0.078239166044181 0.467685547717474 0.005704854447137
0.348555299805279 -0.261472964202281 0.071631810576227
0.206200866061510 0.019484410265597 -0.011394162354510
0.264388855873553 0.006328208254833 -0.136300065810719
-0.010764691676006 -0.117320146689825 -0.502756839391450
0.186792760427196 0.027831746379173 -0.157021679006803
0.157285895998027 0.208682847988514 -0.521180577248104
0.019017287040720 -0.305026812340385 0.284249120300379
0.199039205091868 -0.072153743213125 -0.550551385321884
0.098688321282897 -0.094066775768820 -0.406476671935851
0.231075922863342 0.173700788917122 -0.462463013457603
0.184295271276483 0.098605360658348 -0.485112339359942
0.196101169847122 0.075570659613861 0.175979556717823
0.111163145502556 0.076861518423961 -0.225406504786772
0.189936014233644 0.099915917741367 -0.445726887861742
0.239122355347088 0.016956325198293 0.137742649603126
0.393266947601918 -0.288531848785438 0.160845754973291
-0.014676896350528 -0.050381492501242 0.339552881317137
0.377052678036299 0.406297625553482 -0.160078418913012
0.119892467970396 -0.050802623329888 -0.494623041129709
0.227368377701363 0.080686960846120 -0.262396438048146
0.152730419922347 0.318910945489034 0.213962573197047
0.511229860227097 0.075598155480006 0.152435972364831
0.300450394580633 0.026131530298024 0.381535519275504
0.038562649269319 -0.201628894073318 0.209042247337745
0.179733437261011 0.422495934181913 -0.309399648649247
0.130909914868943 -0.173058841806043 -0.471911571839091
0.412015911350182 0.109120639225979 -0.421552530334583
-0.016905083206134 0.038470380991647 -0.537670879414652
0.089122110250820 -0.273854070615888 0.321734665530107
0.193467682022666 -0.407574732169797 -0.090928527719254
-0.165186636406046 0.217712909439767 0.074917710206382
0.068460672366466 -0.035529320381699 -0.324256974186932
0.159225850672946 0.031818886185363 -0.357381279276329
0.285606107527106 0.094534961169980 -0.383719238918756
0.184420817360737 0.089578460897593 0.413379106887618
0.215619431037222 -0.023273303688459 -0.128193093036678
0.380055772572707 -0.060267371983842 -0.023891292652603
0.001305594023647 0.175305465885858 -0.315618078253723
0.082447625537782 -0.282440833311261 -0.234037055341469
0.382994625351521 0.128888701218807 0.170228516554674
0.011218163888071 -0.077573974166850 -0.536447862687774
0.070577453263446 0.108722050369125 -0.162589442140623
0.099116976691531 -0.456372409656339 0.005248757797778
0.465629222927456 -0.311426821949656 0.020718668301854
0.275550237562581 -0.044522274292727 -0.440987996605405
0.369410677504667 0.071863579369914 -0.280918888791999
0.142996880107881 0.034931260557318 -0.412286428162355
0.294320221014490 -0.049198480243661 -0.064507526517782
0.194192835431736 -0.221355980493137 0.055735627090527
-0.124119767969062 -0.249907812798058 0.133274506674441
0.220246898762563 0.394780023851830 -0.269848791676478
0.107985754522000 -0.029143323105789 -0.166463973120421
0.116782714246200 0.228598828888551 0.090635881683336
0.403471287907478 -0.048133960863166 0.270770563556494
0.388268110996098 -0.249929070344428 -0.416297309237605
0.030735509364220 -0.403137245320602 -0.162856446769742
0.237062611990231 0.084563770638068 0.201160437181331
-0.025141247330395 -0.137509832459367 -0.475667673142946
0.275471785441955 -0.456074410181519 0.025955943837669
0.148790632687883 0.123949748562082 -0.492141410692806
0.223298477247110 -0.118234077831471 -0.472947635262845
0.062768023315697 0.374364755466403 0.092548641092658
0.126271277386079 -0.031295201664675 -0.568104255584535
0.284665387394539 -0.254190448562657 0.171221981814380
0.106107744234503 -0.092110078254864 -0.287057337681133
-0.202301527446564 -0.023354102277501 0.013706628900856
-0.032876220913140 -0.144153134957461 -0.189254702601136
0.152940703170908 -0.009976881572059 0.392505279908473
0.151385051799435 0.002094776111070 -0.216959216162226
0.295523402302554 -0.026643261260697 -0.112289449519857
0.111832874254140 -0.023194981461710 -0.323982355382726
0.089676398018097 0.266675365824323 0.335631548432322
0.042107177562036 0.037483335698853 0.077557967973656
0.155635962497333 0.184418024179484 -0.142210987123559
0.315503888426353 0.287845912312530 0.282115931752618
0.348578304559862 0.104165433086838 -0.257313098712518
0.220506251472128 -0.057035848226759 -0.018168664303481
0.028867068060345 0.086208008092792 -0.332748860256257
0.204915941327092 0.007762027135182 0.214657459441730
-0.073256710998518 0.357755527198658 -0.066408225211648
0.447908465772203 -0.088712104299172 0.028104023720716
0.104697140151279 0.005914985250900 -0.309155777408664
0.207621462285115 0.261719148182141 -0.361516152788259
0.053299257161740 -0.013630102719136 -0.562552733770543
0.101352821343644 0.284253633247054 0.112801986170738
0.096392186803847 0.476807568071253 -0.128617858862618
0.421678848138649 0.057188493046678 -0.023169250856458
-0.155447789732550 -0.169678859545707 -0.211268342845918
-0.006425701851553 0.145771329256219 0.321358456088882
0.488037644136352 -0.176013186419696 -0.243365990653007
0.266711176722031 0.069404822430809 -0.549591670586322
0.135298151387122 0.125843674113663 -0.468333888345237
0.314558251397890 0.021489253102506 -0.184394045466825
0.295534315571542 0.129758728570984 -0.178311989087520
0.132439700628027 0.001402667361802 -0.522126043805557
0.236664473465574 0.149708129887683 0.018037175699216
0.015946793216116 0.196190813724421 -0.502538187710858
0.158739063738624 -0.019247249688552 -0.527200987259849
-0.101172162327185 -0.207392794026580 0.275475520367715
0.145493691018301 0.001414262823701 0.359829648018528
0.137559070634598 -0.121886873605528 0.238339026077307
0.235511334342478 -0.320722967262222 0.228188677586375
0.373507956107707 0.028039416129214 -0.129836812761665
0.036036858019979 0.348283589913619 0.083244272678462
-0.100319561484044 0.044065893853042 0.215485056526277
0.100019994935892 0.131936340801342 0.024187450662921
0.411482069301794 0.396552487947052 -0.017610174324641
-0.238195072879563 0.051619160293016 0.167910071511864
0.081044657125619 -0.277643000878193 -0.323483210651795
0.016394854152671 -0.213525586890531 -0.266437464598663
0.213757314943478 -0.015396258166087 0.395253460887709
0.513222936934412 0.049395707485744 -0.214851876603406
0.164385147683285 -0.026534609451158 0.344020144914621
0.203336936784512 -0.070071648381764 0.374115476101218
0.110219887214868 0.062233959666819 0.138450099876968
-0.044560386981851 -0.180389686647251 0.253334965571819
-0.035253631364268 0.283831665991182 -0.235707227668995
0.141562118477643 -0.011330104454231 -0.287683164767856
-0.248457718524334 0.145352613741291 -0.096184127994265
0.172988675769442 -0.123937350370802 0.007442762229240
0.327266774312866 0.022796859568077 0.390967890228893
0.356541707915953 0.353530278983426 0.109396645956429
-0.102786031912628 0.333144566070572 -0.157305401951087
0.521590722605597 -0.196396160075842 0.086851068891903
0.249754846151645 0.048821804682296 0.220308866146636
0.134678789131921 -0.081254445771119 0.319057525845214
0.125607247387753 -0.038031909387651 -0.395996151956037
-0.159157024809896 -0.352670956495440 0.041184096048148
0.145368140110933 0.073894408153968 -0.363061119391206
0.248562168726684 -0.242969508068733 -0.012138971216924
0.203230911089047 -0.257010285277828 -0.269318309338191
0.186429802094147 -0.334458999740677 -0.410265576029195
0.110885527065634 0.165358115895064 0.116077594788204
0.090251365394809 -0.199827623031817 -0.388944829293802
0.395735035591636 0.005439133383890 0.321439561484012
0.092105248141886 0.148535210364295 0.093378273303871
0.315666718325000 0.121596052565960 -0.431373917822162
0.001880495136676 -0.435834552540273 -0.044487625335058
0.555670997947797 0.005825525470304 -0.142024117684514
0.115673837869393 0.111654176122854 -0.040774317035715
-0.269497086463022 0.113858567950724 0.106789898091330
0.149775242527519 0.002735129252042 0.427358659812528
0.498635527059242 -0.158113548733281 -0.373715096724396
0.203631041514733 0.073665191487765 -0.168544066613489
0.359736720130585 -0.408032331883463 -0.068427515781110
0.298429557992229 0.024199955460727 0.073578705179744
0.286667455816723 -0.242074421011371 0.180838618725417
-0.080602526092050 -0.231638254742130 0.287964593036611
0.352250318811771 -0.038119565920456 0.135408655230044
0.214234464526331 -0.100349873616862 -0.107081943183669
-0.113501104185567 -0.040797735465126 0.182982188266051
0.194583297645114 0.015664566985823 0.167749678822201
0.481914369429334 -0.060965075186010 0.031602925673967
-0.167935943277349 0.096667534053517 -0.139319081174715
0.220702594623578 0.175492191307180 -0.084130691066584
0.532322031069844 -0.044387657879833 -0.012808653259595
0.191567277071820 0.097757877272584 -0.530119045958217
0.252762378351519 0.242832113901007 -0.467437675390845
0.411056094825126 -0.154063376709416 -0.065163568865386
0.149006372949101 0.000312066885019 -0.485761321466863
-0.239532724755112 -0.035104043864646 0.005780963787034
0.041015123492234 0.052327974795417 -0.270569699152394
0.317391021048982 0.096923146272525 0.072839476315192
-0.324781095152188 -0.060720060254963 -0.047130728310782
-0.047292475730427 -0.059503767545684 0.071919779797965
0.191113704590000 -0.147564179714361 -0.175388074939691
0.163746586518286 0.182884772786849 0.315980198381649
0.326546042573472 0.085941738051003 -0.155522450885420
0.369611324893256 0.107962274722244 -0.444054381728609
0.112700650652557 0.049477838576665 -0.449053020522502
0.197545180563105 0.016515486191909 -0.210712858696749
0.187479113267745 0.024732065820175 -0.164884220431190
-0.073939786905535 -0.344291743222894 -0.144508817311235
0.119779598607881 -0.049094459310717 -0.350541163926882
0.137910686843658 -0.065482602724320 0.194990917020152
0.180819531842389 -0.014701330931775 -0.193122295024761
0.147325430887881 -0.013523050005517 0.288194790674418
0.457651263466133 0.293401048147893 -0.298706084509788
0.384715124319275 -0.011225104040344 -0.400315635612375
0.124415624464994 0.044080747883153 0.051073916203586
0.332408151041825 -0.130095704640202 -0.341231351072314
0.112814036164686 -0.259374723869457 0.147888370693597
0.019170234205194 0.137079754390357 0.380161812849143
0.260066916302190 -0.091874547990577 -0.206575144367728
0.208676132682537 -0.027003192593539 0.060697038095071
-0.067558547882358 -0.120731806729691 0.291493523561659
0.178198396337378 -0.028792683478767 -0.343761836852571
0.294209650632442 -0.025607132095617 -0.047158932630758
0.129752426537865 0.222974134144721 0.162741004565040
0.152209539388466 0.048516684503010 0.048938682710502
0.180939211304647 -0.020506242506441 0.423616242973673
0.109861234439518 -0.031451831039044 -0.186537348135673
0.223500672894023 0.009360632122977 -0.047438444491936
0.193911175230280 -0.480232263395290 -0.083854688615313
-0.022493387963387 -0.194455500383588 0.115334266457909
0.114906816759874 0.248697790964756 -0.003646523160962
0.301828376282091 0.020174313104238 -0.545163555571499
-0.062925099737041 0.052360470599312 -0.156792487168581
0.392884938707146 0.249689517572918 0.266157026581762
-0.034010330638120 0.114818425458525 -0.490672945219432
0.124290321895081 -0.034438047323798 -0.562879842563441
0.045751124294602 0.064839465195129 0.027045849207946
0.125541377199093 -0.296805174896650 -0.462649232056861
0.374029357326815 -0.165358342903853 0.319002844690708
0.308713105215050 0.131331121778500 -0.419633941878590
0.388073405418958 -0.180572323523628 -0.192274656009329
0.283742325438130 0.248324082286034 -0.382381379571792
0.138595598816533 -0.123824734922187 -0.323639806873794
0.079346273859721 -0.067779464524530 0.411826256423603
0.192284727082978 0.034463848498548 -0.129634239097099
0.287846144446473 -0.085746208736068 -0.412090833733028
0.116948869000399 0.141910389543804 -0.450209132840629
0.234302385076003 -0.131596515966893 -0.181882416022076
0.266871207147386 0.055203260288771 0.387911452362680
0.271418892829756 -0.001625921020364 0.152848302678150
0.151167317406790 0.028492446003106 -0.340361921885811
0.059202457742434 0.423362777051124 0.147173990910542
0.240734031144603 0.161110337817845 0.388559741830720
0.506599820059702 0.298698702950703 -0.195014456608648
0.108586112249489 0.018089310212065 0.053344589531056
0.268047682320671 -0.250000794129915 -0.001344915421236
-0.146343148812611 0.065183516372584 0.186077402891611
0.042480533907596 -0.323564477539083 0.262162765564510
-0.035056899321067 -0.410186955597622 -0.100320995552464
0.049106493656602 -0.337108105071133 -0.056752806478138
0.374536137252411 0.287226936220309 -0.155070262726749
0.295139423126915 0.200162169109366 -0.361929566807545
0.196101520316759 0.045500530341972 -0.123079016687301
0.204603111762922 0.083942402496924 0.056227750714886
-0.019759081627237 0.152366530384794 -0.461486197390720
-0.023169066685663 0.001766480278100 -0.521646082501574
0.329280753650922 0.019317756483666 0.175042669530234
-0.127189658536453 -0.040799560852456 0.322445462677566
0.152272636262959 -0.011767514056281 -0.291360975445348
-0.095857613139320 -0.306817498710964 -0.123149960675751
0.009850247083107 0.132072019390072 0.334341069838105
0.057032173470502 -0.453406168187480 -0.212324465970196
0.046594773928859 0.073192974791662 -0.276497950036291
-0.148586181990253 -0.104391311141605 0.152485517690144
0.556085792487041 0.093021028193493 -0.185249161818395
0.033692545562371 -0.434609753017394 -0.203835220204276
-0.048386575969477 -0.318815147295836 -0.303712519265747
0.095993758678639 -0.076789590126108 -0.295380976302530
0.134053179014683 0.060239284607419 -0.099995825783215
-0.079330372318286 0.283022649974174 0.253134842133242
-0.052766791744280 0.078594540320241 0.370946462523293
-0.073420584646587 -0.080620884888398 -0.409076365195420
0.234467540611221 -0.007449942689495 -0.395049511037379
0.124952310571914 -0.412565286268377 0.115607417082963
0.164159497294769 -0.185704898652667 -0.278622954759561
0.300158970400753 -0.041079961110293 0.118910374477796
0.262114248028173 -0.230212245971176 -0.221998736843832
-0.057674897840760 -0.005997451466385 -0.228423930130550
-0.225483258692017 0.218326920512254 0.104083591416269
-0.292987346766100 0.177487127546553 -0.000623168097588
0.060365746932811 -0.040026347037350 -0.160946758827955
0.051475945313022 -0.008935712416408 -0.041627023616976
0.015463496570792 0.307280043243195 -0.240140917227355
0.010531672970024 -0.108335284832885 0.058953901563585
0.153878599069512 -0.439157260815237 -0.179537505851212
0.325196494852029 0.263736685099076 -0.410132030315352
0.028791922780358 0.026685971773754 -0.405881548065432
0.051944413909247 0.080859815334303 -0.134204866894520
0.342654362026248 0.183777964081516 -0.088256519646963
0.211692535742744 -0.040816733836137 -0.130171536675877
0.251813076899641 -0.101250267107649 -0.499135390623236
0.182081338051740 -0.163601318391064 0.296881496730454
0.101505118214728 0.271696871825982 -0.299456071928112
0.423021869520878 0.036290433552981 -0.303392188074763
0.077887832865809 -0.250628024397490 0.153790248537671
0.030531398600136 -0.297000572691988 -0.044888966863864
0.044712451030115 -0.082192762196926 0.398094529208425
-0.285989961132432 0.018730286550789 0.083305896554804
0.046485405021817 -0.224627948827723 -0.255566203342225
0.421997656820546 -0.106321828043333 -0.129534190902778
0.180343439740618 -0.016363555532947 -0.571270852303192
0.260644654984929 -0.188172762723182 0.200962071159165
0.160649379356597 -0.008923926892786 0.389314741868439
0.197140486186888 -0.031742228854410 -0.360397942588645
0.127332708300062 -0.115640950570139 -0.106494195210772
0.431286999462814 -0.126920686369584 -0.116754889719940
0.025754142407992 0.029563800014307 -0.516945873487032
0.124380405648550 0.018051579808906 -0.557925811910617
0.162939539896772 -0.017144953104710 0.398399074810444
0.215360467134127 -0.174963772771395 -0.251325848882479
0.030014919657167 -0.300249118970767 0.076454548020040
0.151164787478272 -0.051692348213243 -0.300290811178667
-0.240232717950771 -0.082672512670334 -0.155839800502970
0.050000644284109 0.223840657822732 0.276302201496814
0.162363654065682 0.057406932625372 -0.012828838891005
0.270498734408104 -0.011561782244486 -0.029967014869939
0.176237908802940 0.007021020466670 -0.566152393235107
0.128432722023265 -0.016920306800742 0.173854456894307
0.323129043272561 -0.200547560134091 -0.278435220222358
0.310096072131679 -0.049386662770831 -0.444461328494071
0.271938928758524 -0.234949473971156 0.001700833308203
0.237992180254777 0.041804265383703 0.012315308687795
0.047757640098552 0.064446656396364 -0.551826180520155
0.279702517297123 0.141371630819639 -0.319593310812097
0.114612331932372 0.160580580392003 -0.022008021248052
0.404387309994336 -0.113261876736048 -0.007900219855001
0.091611743168381 -0.042120905178522 -0.077549319615944
-0.021736839415066 0.262128604093312 0.213312415618533
0.059798387113274 0.100369326296233 0.407267803397683
0.217708282878973 -0.012608153697110 -0.147406954024817
-0.168881968740798 -0.103312901285782 0.219198557102241
0.121651938400769 -0.098079632388797 -0.138426910201097
0.149402653008916 -0.005771597649814 0.141017900567008
0.160070722187872 0.086264790706238 0.018203952771892
0.360815498104745 0.177913239329554 -0.479814928373103
-0.108099671378387 -0.000129874233665 0.138075526306685
0.058259643821988 0.278122054063000 -0.443387572940322
0.237629342302475 0.149278518417352 -0.306288059030957
0.150064887088188 -0.110921337686291 -0.137551467029317
0.104245481142813 -0.073285874352353 -0.149361458370925
0.172900543367341 -0.108672537380966 0.075979654107445
0.336434614212770 -0.049229296209433 0.349104129191293
0.136873378676481 -0.004066742395859 0.180185518717265
0.340211275588438 -0.010766381503932 -0.275699299211021
-0.161621058952350 0.020896786213789 -0.127750014829877
0.143122204267624 0.009298476671452 -0.312990159110308
0.100367372042832 -0.087311057087329 -0.346211666323593
0.169464033624046 -0.127868028523155 -0.459290226558732
-0.256792278094282 0.049683097310062 -0.322854430320905
0.110506153576848 -0.332761918685492 0.068609218082881
0.144234619648909 0.138029031284652 -0.126086812385773
0.171744931022621 0.025573721331520 0.143607692992437
-0.043601932422741 0.071865661230834 -0.395030371850223
0.085899464252837 -0.060559060023722 -0.274988792870667
0.277803567382993 -0.161257750167183 -0.266187888477419
0.227588090141228 0.066280459055797 0.392553439208102
0.073664793266931 -0.004495733353097 -0.292213753708937
0.171021834518241 -0.037524903783828 0.426619992795775
0.048131529717404 0.160325878304757 0.300864037001192
0.341715965255689 0.049990540138344 -0.183330144139107
0.207981213596600 -0.094811000995023 0.412815799927610
0.370980750121564 -0.024845487188586 -0.388224645198036
0.235062308242508 -0.054183694996933 0.379981618684756
0.114228576408831 0.078321477395038 0.041407977426712
0.239956283940143 0.039038571682547 0.274352724731922
0.179187767110054 -0.160004350285255 -0.411974956415890
0.065581151783761 0.162322285821750 0.063842853877789
-0.227989604323841 0.124766680590335 -0.089480487914473
-0.099739254889331 -0.355053456644052 0.080009712603969
0.129352192001945 -0.070946838794451 -0.089522849795494
0.126213217939311 0.034410846358838 0.046641597109675
0.368489988166792 0.170852904109717 -0.226626799752696
0.146836139548616 -0.007247092571742 -0.566502392576632
0.057460828320687 0.114773539393678 0.398411550009195
0.362212476804859 0.243777080082689 -0.282427103620310
0.434578588107066 0.256122276313245 0.139319561409859
0.497075209373810 0.298476726840997 -0.191592933800347
-0.037548832669227 0.110124240049145 -0.265761376401936
0.291533920148263 0.109968585442172 -0.023740354898947
-0.328178845148608 0.062086329703579 -0.083390142101923
-0.142021148585416 0.173067993851601 -0.096941890875427
-0.218825246414008 0.123975385219628 -0.359202877728255
0.119741430650189 -0.156494639378980 -0.126016293719987
0.035552437617925 -0.017511138166981 -0.146538174084610
0.290354424002453 0.197154805353090 -0.187780578494819
0.290900377712043 0.192063674708217 -0.389523232920048
0.106030792939264 -0.345068474039390 0.269697266768003
0.058796877061018 -0.022314567157270 -0.068543725531823
0.389407748558514 0.346174130197190 -0.099174709679102
-0.262546868666923 0.007542941983962 -0.144627916741088
-0.280396673624495 0.171767547275093 -0.195318119719903
0.191169188718174 -0.273981669582888 -0.075028910503139
-0.021309718666072 0.031685752806064 -0.147644692367755
0.275633472899111 -0.098031091986319 -0.216836637601875
0.316247013792251 0.153925493741920 -0.467471029548525
0.060220087332596 0.105139096643581 0.374030345081140
0.146440975891424 -0.167039293873064 -0.016667089959563
0.088235856990563 0.088176367068625 0.235310489232841
0.168913064071310 0.160050101635034 -0.419354991806588
0.176862207133658 -0.097077891337250 -0.492233324261062
0.164082255032163 -0.017848775319580 -0.423709405048395
0.280680014176943 0.240456266858779 -0.251313381745994
0.532599958057129 -0.285658612227251 -0.082546856057346
0.314300383886179 0.307975984529681 -0.219274294799644
0.146852114422976 -0.128052926143442 -0.181997759394122
0.128373947992321 -0.068245977273920 0.070826918367763
0.284213467125564 0.031417569989421 -0.523520836590374
0.137853587020506 -0.003772943602839 0.181335249009004
0.156185015602859 0.124672960244925 -0.074842426590744
0.228905744827834 0.046840497453091 -0.526480396234277
0.041594650242155 -0.106154094939285 0.296095410712051
0.484882314671943 0.220167725919573 -0.062414999792923
0.366119571564366 -0.170310482947442 0.196616523884990
0.027653790945332 -0.058603883290677 0.019171653064114
0.393550671742945 -0.296448642475423 -0.321286583165977
0.323685080858573 0.194056399749249 -0.359297848390340
0.301195491207588 0.355917188825204 -0.302042477188576
0.101430196424191 -0.023441551167635 0.263408808793646
-0.224785385592132 0.084189731476985 0.227837968282249
0.047632680450351 0.002519819315834 -0.163418992722556
-0.194712069684719 -0.248550660257555 0.058565864444803
0.018799465212648 0.041786383938677 0.344925368484970
0.018608535542733 -0.372337080088917 -0.056790325776877
0.096763495927415 -0.012326582504909 -0.390895292326703
-0.144227915071932 0.237498676979887 -0.140805776448313
-0.050193623340767 -0.138043187912593 0.350662951305585
0.024426620121533 0.287749234683111 -0.293206611615294
0.293126908615066 -0.358649544218681 -0.345466176819354
0.148643551377386 -0.045353441473862 -0.437707714256064
0.017640415228802 0.262153275607512 -0.115256496903416
0.319885205928155 -0.174426001439140 -0.270815591981218
0.153752764347644 0.004549090261062 -0.555732004483571
0.198859492333580 -0.358250255801808 -0.386041096162979
0.192640697454142 -0.000731340386809 0.190650787927021
0.386992453894749 0.170994420788481 -0.281791840727159
0.270098189519056 -0.270719968953273 0.035503846416297
-0.154241341655712 -0.097884375472774 -0.413136654899154
0.153177296946010 -0.034485717289974 -0.565747871784190
0.216804927573941 0.015298914131684 -0.268326905373356
0.052663007794549 0.112786367950498 -0.240250559275701
0.021624561017949 -0.269343969894023 0.306764551009170
0.143402555734155 -0.000749755598605 0.034029514278478
-0.084329046652462 0.064211418460177 0.104101937838026
-0.228860672257866 -0.128237451225198 -0.181477407013789
0.154774717766130 -0.044200813514301 0.389543841283476
0.005838867372537 -0.062762077383276 -0.235693938247735
0.190744299253414 -0.004835134457295 -0.165564517086604
0.226924546137827 -0.025415921700032 -0.287915559453382
-0.069834619542828 -0.205286904226734 -0.205270919983250
0.513172963340572 0.277947185778152 0.074389313794994
0.083094488080078 -0.203729530556752 -0.298154486676718
0.174540524239214 -0.110597704904112 0.387142759688156
0.400598379155382 0.164910345257787 -0.121638918270312
0.065003567538941 0.014659447503617 0.024066959297288
0.155699418615430 0.445615297645290 0.111357595312165
0.135023370957120 0.146121083674291 -0.134679595249763
0.026093395925531 -0.215345322115667 -0.319890175540322
0.241316439265239 -0.068890229973974 -0.115027299486529
0.262560209137320 0.237743947518977 -0.128129870584203
-0.053532637070446 0.120497137400380 -0.495778012632332
0.494171841731413 0.134794179540862 -0.100443136618109
-0.097465581364627 -0.260220855306485 -0.221937659946975
0.049507372930962 -0.022959322639549 -0.401128202142611
0.424492738386082 -0.376123745601761 -0.192762498066849
0.178706797791893 0.133069411246832 -0.486536370806200
-0.184676667929218 -0.009484495027053 0.118544238170875
0.149239153884452 0.184534606787093 -0.233664333230279
0.163901277037000 -0.052575346399539 0.201179416116229
0.151001868515663 0.001473418016096 0.256343388843111
-0.076552617624029 0.027913855260362 -0.210509831469064
0.364766218479681 0.046096668248571 -0.470723079369100
0.116158959787127 0.136339008566145 0.135936147535643
0.047783180489105 0.090421758990214 -0.183877093290941
0.060518228977001 -0.029822334742493 -0.502526698072848
0.334419869003119 0.216882721568727 -0.473133798579237
0.321687648061825 0.045719704574392 -0.047579658947240
0.190846064216400 -0.086932627564244 -0.155022632147110
0.331096938436087 0.124765744991572 -0.398443169772302
0.139313138833671 0.023706168692800 0.226716784684517
0.074281285004373 0.060562913379009 0.418796591380734
0.127908635355158 0.051707855567064 -0.167614344878512
0.193795772845308 -0.216216627371062 -0.258111616233258
0.254724957878749 0.118436960967694 -0.013861876616487
0.129845735027763 0.033109991603201 0.129477948707247
0.330894643501640 -0.079336729758443 0.354812413492747
-0.114046772870355 -0.024418438290356 -0.387837691950785
0.146952680338526 0.003155124885015 0.048939806560651
0.148789240235837 -0.029426391837086 -0.309188298418355
0.114290445981102 -0.063021976470125 -0.572573492096359
0.261911680670452 0.001715008491907 0.386588119935489
0.205450829823874 0.042347600153682 -0.549242717626264
0.175548913794973 -0.229745510384920 -0.101204524067654
-0.088704856343918 0.047158572593253 -0.454049502701305
0.105005214009008 -0.009525451292586 -0.323517429657953
0.151562292836011 0.071870810572188 -0.154694624043373
0.178029524870206 -0.022871361891201 0.136858781165324
0.305745239075372 -0.302353454882076 -0.030563606576296
0.410600956387671 0.215974799643128 -0.230363776196748
0.145985865590634 -0.248142599981532 0.252693625896938
0.026225885663033 0.096658192124897 0.295782284844449
0.331285009278615 -0.355305800678141 -0.267595226959957
0.159323260455421 0.051601700381621 -0.278119767108736
0.233836088233096 -0.226845742380548 0.070727162177692
0.308335285206134 0.066043212467587 -0.226269252162728
-0.292967489087799 -0.112449410261874 -0.208454173329799
0.119858216223756 -0.008876988920354 -0.379891055281283
0.178153819060866 -0.033478371323222 -0.183595360496819
0.086818754739484 -0.028351425529398 0.416238575132227
0.186169189553129 -0.091458934945898 -0.510482240783927
0.148347586441026 0.001470586809419 0.064828921489662
0.128024882305467 0.075954265565631 -0.323270279546977
0.475181022810272 0.174859585881308 -0.285277765664713
0.105256260166764 0.122425680647311 0.407848400969246
-0.144128433604629 -0.121374488024304 -0.427594485230236
0.152189063276475 -0.002117632598458 0.028597553169688
-0.058353546326348 -0.314190396856255 -0.297809197702493
0.327409334339557 0.389869142472558 -0.161144092506612
0.217425427790322 -0.019960926781278 -0.482223164311559
0.122018363032445 -0.036285408670932 0.420614238481117
-0.257321338968124 0.194794104317376 -0.247308738380230
0.057726903452035 -0.183955377736393 -0.233790648524673
-0.120360019988457 0.011983652954228 -0.156571951357291
0.160138980511021 -0.097740883464413 -0.360800952232011
-0.022320352637949 0.056877781632547 -0.301124596451866
0.445081831683403 0.310624000474036 0.136370644049990
0.213599160390886 0.071802840431849 -0.080782191777906
-0.060155654754837 0.143205864771526 -0.389182678369687
0.535366427981191 0.223793931621675 0.048208703033365
0.526210633392276 0.185952453969916 0.123850464460769
0.176933532797536 0.009190951790845 -0.575637306499548
-0.003556941515463 0.014342552582551 0.205655439587951
0.034862080736055 0.018697247045825 -0.543948892237447
0.389528372226963 0.313276767261847 0.068601572154269
0.273104809681269 -0.025491437088419 -0.501944094028170
-0.313221578258019 0.052790917094153 -0.049933869815384
0.196981543111289 -0.089420712846333 -0.544533733903777
-0.181995293290226 -0.106701717163182 0.179251147828867
0.027593422660106 -0.060656257239009 -0.424072711619562
-0.246491747190125 -0.167427583334373 -0.068856392702463
0.312487778073936 -0.027424012848500 -0.385674246376457
0.189924793632996 0.054927687179495 -0.049678905423855
0.208333430295532 0.110886135509246 0.184769815384583
0.107707723590694 0.068553270945264 0.147302999449341
0.072103398169831 -0.174390622915606 -0.365135945649120
0.144467252685955 -0.452723311993796 -0.160480952617774
0.185771759762069 -0.121763258215719 0.409766200352383
0.299882751592615 -0.005997577331728 -0.484866325497695
0.195808006997515 0.386913541974363 -0.362943152698660
0.146818199999240 0.001779657011499 0.372893491793724
0.597627744782499 0.165178466234097 -0.044417894588955
0.145388298511937 0.017218061736113 -0.203654365510711
-0.254697248619292 0.071584247108187 -0.116561144808578
-0.160233092554407 -0.132291265718621 -0.410413533585242
0.246971411441797 -0.127375207437493 -0.176901110022467
0.086348149179811 0.040926461788880 -0.062680557988302
0.044520674711631 0.030608418969973 0.415495014198483
0.593972773936361 0.058585460848417 -0.170650546155699
-0.109457499674982 -0.165791946012233 -0.025093905798093
0.263876211918421 0.028571074317281 0.413307691096939
0.447210310422761 0.012809669849176 0.310730328150460
-0.133896410162190 0.309587130648630 -0.291758839407754
-0.123946822033966 -0.061704140986502 0.083702826913402
0.226761770357026 -0.074038800344422 0.412277893790176
0.374764549934988 0.016034295445547 -0.161117423736945
0.198042681776530 0.017359337107465 -0.160073390273803
0.100589398852634 -0.172822542673645 0.082641352841162
0.140965277491529 0.012689906790222 -0.205264668129541
-0.007819757536095 0.049361731843165 -0.367173453570710
0.174753283281630 -0.008766592177666 -0.572469049123903
0.228462688474084 -0.049730566164405 0.087519758586336
-0.010577309460239 -0.418806719075580 -0.055197141915190
0.152284451085966 -0.020059395425792 -0.567900367486968
0.003427757462394 -0.275568495384425 -0.204734299158533
0.155804922427478 -0.011716048544774 -0.544339072966749
0.323837115101143 -0.368496526407001 -0.072226870358139
0.005824461959755 0.078444862238333 -0.399686795296631
0.305946855419051 0.013167391837086 -0.536516061191611
0.216281094914152 -0.093168664967370 -0.452289106230681
0.284390956899597 0.047185276864011 -0.445495787789362
-0.181040606312323 0.323880527099060 -0.093750148516666
0.061834040985804 0.012647757812899 0.202908058233212
0.253260425994782 0.028280143749539 0.367206940146569
0.537285060410501 -0.095286876935554 -0.346310051676081
0.116185863955410 -0.074877990423763 0.028520349329951
0.121327254590110 0.283069804537009 -0.372226533682754
0.171809969896939 -0.293281095056087 -0.230277156935379
0.085594165643503 0.444781079940546 -0.026835738505896
-0.048402287891778 0.394357779539102 0.019231578354890
0.212237920745098 -0.070766746573348 0.084250539727232
0.176333772159142 -0.072261314824038 -0.192136095352803
0.090435479818663 0.082806375637039 -0.548998869349762
0.158905234227117 0.395369449063357 0.112662631751728
0.004869595156548 0.265234562790783 0.231578294234727
0.256823619913888 -0.143337033819889 -0.248061765814991
0.063324478483492 -0.330885476940510 -0.403826242315945
-0.103906297369659 0.377668536243468 0.092639706698728
0.181413864185785 -0.086795475679616 -0.562852202463828
0.221588226089490 -0.052263031535714 0.397355168954152
0.278779358532437 0.426403769430917 -0.052276695848571
0.499137001844138 0.202099664470500 0.108689520875468
0.350513971131212 -0.240817534166603 -0.273868280511348
-0.025360418432602 -0.161484243887070 -0.325192782765840
0.530214794819431 0.080901445448651 -0.360614978758675
0.122897864044525 -0.034161962399082 -0.171695694473852
0.099664973866234 -0.078971655268488 -0.282333968413967
-0.076287172703442 -0.071902278375827 0.306106675094485
0.185083397056826 -0.352419689425950 0.170292663732315
0.261259011681929 0.032584039004575 0.199052175844313
0.121696536815333 0.072751169504863 0.219611438145471
0.290392205920845 -0.025914091966835 -0.256169105928533
0.129529737024471 0.036701888808565 0.402700511064445
0.152262382553882 0.018435261238213 -0.232603041254170
