# This PCD file was generated using the MATLAB® pcwrite function
# from Computer Vision Toolbox®.
# .PCD v.7 - Point Cloud Data file format
VERSION .7
FIELDS x y z
SIZE 8 8 8
TYPE F F F
COUNT 1 1 1
WIDTH 868
HEIGHT 1
VIEWPOINT 0 0 0 1 0 0 0
POINTS 868
DATA ascii
0.363693949692635 0.066740004356540 -0.378160386295498
0.377076591059187 0.418586956518648 -0.071598140370833
0.346327876782108 -0.457457629610860 -0.138909926813702
0.699530424749506 -0.240605871711812 -0.294816080046136
0.167009860324918 0.018538954625052 0.762639210686549
0.228051490511416 -0.221210355241163 -0.073396034093864
0.125718396783611 -0.281473892418231 0.511547868082736
0.366892903451502 -0.044518981476885 0.584249298962489
0.500257649421322 -0.648687027052256 -0.073416781263652
0.045435869058488 0.368367594677132 0.204045367654714
0.580390708779972 0.023408327858288 0.592682134913320
0.338809585549652 -0.233667514747006 -0.015622713336290
0.406300360867340 -0.202087724622491 0.698575682469938
0.802303623772452 0.168155002169804 -0.253218907190922
0.502843447910458 0.753524587424734 -0.098932820129825
0.863994953151958 -0.048840221657725 0.017363402289547
0.097988595325435 0.271328404847895 -0.093797269934865
1.067615888913984 0.100418390984433 -0.299766973770934
0.188543802558052 0.264866583718504 0.271078341838724
0.248768488937953 -0.416098320990938 0.279470804163042
0.573054112362489 0.425256431134238 -0.283267824244328
0.422732646689587 -0.198992910182861 -0.537121017672533
0.672212021888360 0.544867963291089 -0.342328459072576
0.861593676454689 0.042747312519375 -0.374493915407399
0.553624807196904 0.499202692887478 0.499345486898188
0.073848160947744 0.065403352350067 -0.229396464497269
0.568999988932539 0.194606349029349 -0.399552340651322
0.357232737708024 -0.073925695304399 0.418353682554502
0.516704121977798 0.116579973517285 -0.546796023820023
0.414444344363752 -0.591579698651005 -0.163843404101540
0.361265601637315 -0.397985226422004 -0.153998056933026
0.320969635008454 -0.456268730714805 0.382680965357921
-0.029485153433449 0.020263282774708 0.200299287903210
0.470872206437973 -0.291170981374990 -0.210606832327891
0.701000580123757 0.140386335202925 0.597837443507795
0.323398069135400 0.296706839758976 0.584916468933141
0.534409131912888 -0.331588122393083 0.652109309501014
0.063309595183024 -0.576885567811567 0.255440217704111
0.623047427927434 0.143713565464847 0.448935159704695
0.185805355876086 -0.077092646141271 0.160734200140522
0.468279860340102 0.076282280904511 0.391665632707320
1.038545206444521 -0.304137441488190 -0.043524583522637
0.279982347242805 -0.161813445064019 -0.277876083755734
0.821419799519841 0.536714940196171 -0.072665187933317
0.005551184316343 0.269216515048594 0.344571242005093
0.795368163593406 0.014854061651275 0.520264747079753
0.633986840766232 0.542378561295943 0.379366315472015
0.733628504097652 0.202899706497540 -0.138459474007413
0.592428565111550 -0.089322962260413 0.003151138962885
0.616005023906953 0.254855692162053 -0.126569897871663
0.649858075733924 -0.030975711638190 -0.236549541094222
0.470730964251440 -0.048307963786368 -0.191674734998776
0.923592059418082 -0.071884957666335 0.339147213126828
0.859165991422324 0.071957042365017 -0.123615586990344
0.643641170670516 0.094435912337648 0.599058939700747
0.466587493171000 0.555311582911557 0.434027404220938
0.551030723116555 -0.563397269280137 0.373489630206195
0.548963765180511 -0.304700344243379 0.480019841924896
0.083593655874034 0.140402910062994 0.331779916737765
0.762284638947737 0.201460516337634 0.536582156697802
0.855991651048744 0.055199183230899 0.245750311572190
0.717804446727341 0.444502700880749 0.351154365340963
0.687031827774763 0.376312752723533 -0.043213147647100
0.459022612138136 -0.120052057505216 -0.217963905900189
0.579622530081463 0.305732011092219 0.497198854215229
-0.074510635511192 0.127075181873803 0.279581862686492
0.443241718324487 0.422394541016856 -0.093768677663460
0.751284595336229 0.015244871280983 0.689342284496432
1.018204431465090 -0.096042254391996 0.547604567340303
0.746348823920472 -0.230472671716624 0.343857174674075
0.267539261236680 0.062143919860668 -0.352160807946869
0.503873363630927 -0.103428354448079 -0.563557617603251
1.015006152703294 0.403310366564512 0.058815850398135
0.548774830974942 0.171595325844331 0.585330447344734
0.798377305058901 0.167953249850609 0.584893634503576
0.506956241975882 -0.120394974964210 0.578500947480272
0.639267359409365 0.228630451292264 -0.506235691546949
0.472687694268034 0.047170014294091 -0.303984819403229
0.896370696678818 0.341330590435407 0.575147547906672
0.161024727791743 -0.192679838645549 -0.033952614009512
0.947430779147048 0.127038140156125 -0.197532515635819
0.979090170956042 -0.399347748072736 0.408746431334116
-0.097301196385173 -0.037944592771466 0.104160225158106
0.443293733741112 -0.216742247496046 -0.325008603794379
0.626883216658350 0.009173394548369 0.647568979927816
0.560519181624042 0.333394994305967 0.650562051679171
0.431973145179813 0.495317272608461 0.465548379953784
0.358116450866998 -0.004697478992099 0.536366330512008
0.455934357080095 -0.068762862388698 -0.463321964233103
0.425290441234165 0.402334669321583 0.020492380942036
0.545462678988524 -0.776972479942962 0.063272133673580
-0.105329646203729 0.054614470499364 0.407481313804981
0.549797943313101 0.085506000654972 -0.403678230445252
0.520934595182716 -0.111002824620417 0.739517842925639
0.600045644246241 -0.022539613552245 -0.459477685717375
0.709414354393573 0.227797478639562 -0.410446434579277
0.477763555433408 -0.096604243874339 -0.224529991536954
0.138012935400405 0.370627815201421 -0.256130552015179
0.738643990693501 0.002207025879036 -0.032113169796456
1.050256682540474 0.265772233200628 0.020215087486646
0.486344429102289 -0.469430075074594 0.161534076547169
0.718389232745220 -0.118487310503986 0.718557681953223
0.754166085546776 0.349179008355919 0.346833198212827
-0.074124679133061 0.217445915041565 0.232480837323895
0.495100722871989 -0.749085112054599 -0.071800421294653
0.574307304937524 -0.556382908448655 0.067322006736465
0.462952892207465 0.433856178577953 -0.059531171484801
0.105877011178962 -0.331223668433652 0.457731512035897
0.525922090364340 -0.132161468958483 -0.513115044759975
1.025879212236138 -0.131080029732305 0.299340517397866
0.637844173814496 0.195661754032760 -0.415493870039195
0.842794556918838 0.048418230687019 -0.515456364956735
0.558225036631090 -0.129639837004513 -0.660911239334791
0.319965763252724 -0.288837009397696 0.384498712211986
1.048232620123444 0.093253842918432 -0.049566129586332
0.319443665166699 0.270817842603427 0.459742087083508
1.075151734929578 -0.488705415777193 -0.037305159184148
0.657445103038216 -0.050243724228927 -0.144436500593214
0.468182441195140 -0.626754399788964 0.132149636080785
0.450885094301331 -0.374602451930378 -0.126241173905312
0.118482013792518 -0.255711329118537 -0.003503704369887
0.195418884377559 0.028657649933757 0.614500012263803
0.312976453784854 0.337528558062932 -0.106472781455444
-0.096445133359704 0.214402830647188 -0.140392375687768
0.550493433901164 0.083007538134857 -0.351747333499020
0.601850821614047 0.220827946983963 -0.292812329180657
0.522259845505640 -0.340331120496506 -0.243961493734584
0.591470844875577 -0.106932052057108 0.457857016154096
0.832198740186574 0.096863613731504 0.457405780085668
0.570683394966029 0.293384799656023 -0.305186738588821
0.993432664375792 -0.028814984068300 0.281189845096569
0.446528542760054 0.069041463169270 0.644393876363875
0.156482780747692 -0.108253155693305 0.092091117288362
0.400691756876603 -0.096536565755529 -0.356256847229429
0.731101282632630 0.168048811588764 0.494046821904449
0.974320660929358 0.333602514477500 0.423731437003918
0.292211357634607 0.244197600383325 -0.243801031325723
1.186056711382982 -0.212377280498974 -0.081691824754508
0.513050246928387 0.072113631064727 -0.401923804185870
0.754221840963240 -0.389224644636377 -0.016590146148647
0.336834585156572 -0.116896179758514 0.560240462665131
0.194728000796541 0.165037690590118 0.481115624485748
0.743806781787864 -0.131899477027819 0.552203855115599
0.537445203338293 -0.313712048545668 0.290939112945659
0.909801369838697 -0.377342170984225 -0.059769065361647
0.414754698956249 -0.043697835119367 -0.540853563583839
0.037309541163779 0.341514892552770 0.055235671867769
0.262313117340265 0.659900893935690 0.354860695132403
0.648732634261306 -0.298393038900576 -0.382421741032228
0.813492762242940 0.034025076602922 0.271306060897263
0.671564385967329 -0.267854137888872 -0.380852184582677
0.127476155039603 0.545549046570366 0.317345319032044
0.169022735692899 -0.112785336657465 0.570986651410778
0.264524470468885 0.078114281673904 0.853758834674325
0.425904520791788 -0.045322429556339 -0.394570694310176
0.340598472907283 -0.070400956781377 -0.363442943321419
0.125647522461200 -0.621776960468467 0.012849029340339
0.566757002333577 -0.237841224932386 0.850727181264847
1.023184019871009 0.258377859999204 0.479702181902688
0.436565301075177 -0.131967223720422 0.500319869819676
0.539654160504003 0.125288653669569 -0.276172318601044
0.426451877107988 0.611353451210040 -0.076277221602196
0.493818478058161 -0.047720021072135 0.590077174252520
0.357755331950396 0.010333889786379 -0.033447208091971
0.394900429692448 -0.094651379059811 -0.094529002692357
0.446987556293211 -0.026538405276691 -0.533243216142079
0.332334404711447 0.297741149204863 -0.333675641001457
0.192124713090703 -0.115637043745572 -0.199024997207906
0.840416711864169 -0.161760650873354 0.493442064904537
0.556020117588464 0.079564593287585 0.721050820455268
0.478433746014166 0.297215513689626 0.625907777676073
0.468564564740434 0.139009512842746 0.557212663358167
0.966399734395017 0.281260897867681 0.477699192292446
0.084450160418174 0.102545761181618 0.786946470837345
0.109011863967614 -0.087911421479634 0.711981280093175
0.325817039569095 0.106350372595594 -0.532161925638861
0.594446328610956 -0.062835402001547 0.675508325621192
0.304242672682650 0.597512522049966 -0.312388859058826
0.679855928090826 -0.372337492621033 0.543978109974966
0.310427582547264 -0.000589770441880 0.477465914093386
0.645188162399458 0.220583840976831 0.561158205019731
0.486143808851301 0.050598317405538 -0.322589911318265
0.712887691423872 -0.181123093861999 0.550830688608779
0.381925214955305 -0.106618575329376 0.356292401472666
0.121362174025417 -0.032454538261031 -0.011232802355341
0.072113290489609 0.373398791734151 -0.097720910049673
0.964935702469348 -0.064145916328320 0.257693994831883
0.277224440594067 0.351982261003673 0.241803170098259
0.398579392658292 0.765965583558644 -0.135639989366301
0.642905668733958 -0.238841360248974 -0.323093103548019
0.415075793844236 -0.202669281978068 -0.497598830563732
0.540014638421141 0.002373829378523 0.786276776822368
-0.064743100496626 0.045763394527457 0.083260415796384
0.266636962932279 0.690288016543911 -0.234040328959896
0.644472139694244 0.650550193095887 0.204827539457990
0.466811793616559 0.080218472274772 -0.492908844928095
0.230387154965782 -0.144449888939917 0.708175030586951
0.302596432464221 -0.208595783201394 -0.371815164060966
0.226691234310074 0.249832326345337 -0.305715702103082
0.547606193116859 -0.190941339952250 0.300217497153190
0.693957357301018 -0.170946793046760 0.089665923290274
0.516389340487082 0.230979764435745 0.397709862869275
0.902006578552490 0.381278431633033 0.273243129216171
0.531341818713168 0.125703701184022 -0.363870299970541
0.592948608909488 0.264793312384838 -0.188471102541455
0.063550844089949 -0.153192243221282 0.016669474233158
0.243832569309857 -0.130534582478898 0.861320234987025
0.636336301604683 0.158335907510162 0.031531267269135
0.355667197010715 0.050085902228545 -0.261173571339414
0.419588024078492 0.130630085943154 0.790940397833729
0.926422812518613 0.468469887043640 -0.031448326150781
0.783054102814504 0.487223396068337 -0.013829411022110
0.129415577090765 0.106967195832369 -0.074377280623550
0.137257943075387 -0.127822311613312 -0.264515342123568
0.578563472429609 -0.024580396821409 0.432609763027485
0.132107010775060 0.090984088068457 0.443560515018330
0.164026866726505 0.453505632364821 0.001362785159489
0.353460099040500 -0.316139410892802 -0.197655388605318
0.650455374493360 0.130873260303140 0.732458412660674
0.950780160454457 0.361939072165496 0.381731343340916
0.611559342801970 -0.192880080497732 0.330227806970867
0.684337138256774 0.143463279043762 -0.391014866635951
-0.110138811202446 0.045654618900325 -0.059358138039397
0.777133417906743 0.369678826683053 0.138621380737516
0.193910393778080 0.531305578382505 0.077968455149906
0.399616619609151 -0.480325838874249 0.322403210938168
0.399305156323021 0.222267613127825 0.445671652680162
0.341106572834150 0.124737051745395 0.584093901897408
0.032993103705393 -0.142872601821723 0.541761287941267
0.419839684182823 -0.058513397692776 0.276737597711767
0.572312151025953 0.064314532352260 -0.249499976340899
0.588952595141802 -0.115825943028707 -0.087333703397970
0.871256113381463 0.639847136093080 -0.193746484903572
0.530340052386102 0.115519764523738 0.339652178318762
0.421050051267029 0.239886736083680 -0.406494763813984
0.522150485901372 -0.065812535396816 -0.338368120820312
0.577861979093857 0.104534695958969 0.717963075537536
0.385543537726303 -0.236527242831683 -0.225838783549779
0.474043051885006 0.167311371177469 -0.485542589957515
0.635615868634693 -0.485990764258206 0.512838248849238
0.461300598712906 -0.038677399337079 -0.448179079951398
0.286988589370155 -0.084665085058285 -0.060192622552176
0.041652103394069 -0.126741695058044 0.096104267528476
0.311034208310872 0.322145298602791 -0.315137038689716
0.538097115553423 -0.075025872164612 -0.568093603915200
1.018565181152367 -0.200330874515297 -0.333265033029900
0.502955584775846 -0.320652939293170 0.504018046420307
0.467351102196154 0.092063503026012 -0.513399095436775
0.594259036391971 0.056886774967641 0.414439299378308
0.518170867018150 0.173332045521062 0.682382936922145
0.603301081233553 -0.069270141199777 -0.047561497284310
0.584141971821845 0.039365539168097 -0.412257061917557
0.418925175475272 0.219183146120735 -0.521374807001617
0.950214614396562 -0.049376401120532 0.610581960766753
0.115713477258548 -0.387280476348006 -0.094843425209130
-0.093831318419566 -0.239226303853477 0.092073687969231
0.621696995153742 0.014693696458275 -0.168513126069433
0.735108414980291 -0.488545860883535 0.361732982708984
0.236822556044326 -0.286789927146163 0.548704673664949
0.560790762337682 -0.468186902495480 -0.128088171225083
0.028418254993503 0.571741248142288 -0.082821664489998
0.417537409873042 0.001662749327519 -0.491741708070732
1.034253843481965 0.304752437629770 -0.011233099622238
1.062843995249307 0.065191572498871 -0.258806433617221
0.035467252764468 -0.295628408767414 0.369280325784416
0.435887999867012 0.137178364980080 -0.334592505224300
0.813086075341955 -0.448803149569694 0.435883816027251
0.474772354487951 0.195342694981026 -0.383944411419654
0.846533267708639 -0.550437118326445 -0.208405343315606
-0.159785581967822 -0.115999979628035 -0.009971475330989
0.387081579883833 -0.108096445589224 0.492841129124549
0.926239556434834 0.406018741651236 -0.161783009738181
0.339200249774464 0.278411432631824 -0.506339940126902
0.533157495963118 -0.077197538962041 -0.381780370405390
0.124557174192797 0.380233336388592 0.406924668333055
1.037508108165931 -0.374882292065984 0.298844277135773
0.026074271025609 -0.007909329820875 0.208366340322489
-0.209751072484211 -0.037306942800603 0.146026682849104
0.447025880418463 0.006356709855011 0.567369521334230
0.955091504223574 0.102662038918215 0.663902825544277
0.388716624575115 0.004751973503871 -0.468289667691000
0.305640191453402 0.385954343710818 0.508022801900845
0.774764909570337 -0.377412854403805 0.513324484886604
0.241821624533495 -0.308752338576839 0.250078573290600
0.865086199178605 -0.329252148510877 0.028304545487494
0.413820997445449 0.036952112509753 -0.433952791235355
0.604483601280144 -0.736558405071694 0.086998629317994
0.057947845085119 0.497900778571581 0.283194052043050
0.046150594966114 -0.001737096802354 0.462566603111420
0.386311351111982 0.029271934155839 0.625546262189034
0.843023737953245 -0.157585620246091 0.459536899327787
0.100886202632610 0.107453004296352 0.011223439425408
0.794382629919095 -0.478233393066172 0.439883867471548
0.218111566669449 0.473481295801473 -0.348013730407829
0.614145150582473 -0.238068505224212 0.498210935138770
0.664367098342119 -0.089693656058897 0.591104885897999
0.390462284730019 -0.095119150269472 0.515524162116662
0.505271906139976 0.371892788177451 0.406416065010576
0.686340112100149 -0.428983697472999 0.272927017312250
0.215277501807398 0.040423744908445 0.338839156284112
0.733090799642738 0.007045453705693 0.375586836036813
0.761305622153349 -0.576043512334460 0.292284046095458
0.400054645656981 -0.141192411717292 0.370668990362893
0.435704175371378 0.232059637258656 0.749337772770503
0.240630038438948 0.111425873046777 0.588405996659535
0.042249148479340 0.153346286193646 0.540352743903213
0.765127415691154 -0.240609248692205 0.353188008474372
0.681769539725647 -0.416707922119595 0.496266884529497
0.810368606991936 -0.091756162863436 0.608081022901862
0.381006221749579 -0.031090870847064 -0.567515820468066
0.865579846258879 0.062801259200271 -0.474849209366025
0.858090786552058 0.048204636345051 -0.196391816826695
0.547311240104896 -0.250421698448367 0.473584917200160
0.405906123952421 -0.041302302224951 0.643760604909555
0.479026813982891 0.343634531292515 0.322550911221836
0.817280677916079 0.330896488509742 0.620134013128081
0.474669282345837 -0.626551756688987 0.473113488871758
0.450186053614958 -0.271877960233496 0.698933137384192
0.293967895500255 0.213115416076310 -0.241731304841571
0.876827421116063 0.109180314478055 0.236354158258756
0.491202917242229 -0.144496468878152 0.609350700235668
-0.013141261037097 0.249714111952537 0.193931474697922
0.817233945852058 -0.175047989340071 0.301765841421853
0.073447049629767 0.213703727697282 -0.247372501958044
-0.014840054685916 -0.122362116683820 0.455250988563845
0.411449279740368 -0.096665990226458 -0.429375473178318
-0.012512604809737 0.318597168592836 0.575055085131052
0.890045123906751 -0.036562361737513 0.244243699701809
0.499104372829420 0.493818855659590 0.416698353636996
0.789789040584238 -0.335456242280099 0.223829494320502
0.272164572079862 0.348675081292238 0.331699967932020
0.523701554731986 -0.210240602323061 0.606382035835167
0.112931652974569 0.143677907387421 0.603600444230180
0.715798152849938 0.407361365955403 0.336740604229241
0.557665420154222 0.015017145583812 -0.619293500205167
0.277213278102800 -0.046066442921696 0.251767119711538
0.462525247580502 -0.416920899793794 0.350175619378905
-0.096679956315250 -0.052465107271943 0.166156749370075
0.836973567465720 -0.313094494233899 -0.008146092729252
0.361495021232991 0.232033313575192 -0.320366549757074
0.186239979738017 -0.297097433318279 -0.194907342497283
0.260877227440989 -0.319902861514737 -0.129912654243556
0.746863209062638 0.292009427428691 0.402660043607872
-0.103003186175703 -0.310978586659720 0.041533222580976
0.940298762471523 0.395341186080719 0.038914537453159
0.843647532134891 -0.150786584569887 -0.359955923238337
0.481134320664861 -0.296749144022885 -0.286300116802122
0.377885958616161 0.027378173035584 -0.412040746073309
0.240824570023915 0.161311719594432 0.476362435783716
0.626722828668549 0.202981807051679 0.253152350125542
0.656237925769214 0.142678861977000 0.741228069220953
-0.117715803955037 -0.283436181462879 0.448627326659472
0.507263492077977 0.050862919092782 0.401552362491247
0.219146033463886 0.332129097089408 -0.261615525891325
0.050123946121313 -0.218742410986276 -0.346251818462740
0.143140277885537 -0.017951766511710 -0.376255641169855
0.751128861090056 0.225577451187651 0.310117538345799
0.436015290943582 -0.021521302164341 0.391429901171007
0.800227981110912 -0.067378296007190 -0.222299106035979
0.238553505235123 0.284241080850143 -0.322238614457995
0.925530724952687 -0.103923023171506 0.499488107189216
0.656956018757010 0.329749060106718 -0.251191237966970
0.680194165337077 -0.124650000878814 0.137728020580528
0.664591239067705 0.306571308598938 0.098014396354006
0.971141013096315 0.019465803650739 0.248094345126279
-0.031092416882008 0.215955088080438 0.719902987925514
0.563390669780595 -0.060318119140189 0.759443813479968
0.400535423418425 -0.643701238744333 0.066811232373883
0.803949087245945 -0.241330347136247 0.605887587013486
0.102141235599786 -0.378721519369486 -0.126693491665690
0.627180929913468 -0.051941991916931 -0.568469332230336
-0.024787108222021 -0.246712350090505 0.021822144609771
0.748393862678208 -0.126078571494418 0.543812059457896
0.515135064498871 -0.540655510128211 0.165115986302636
0.334990910758676 -0.040719967103779 0.824247990872596
0.694125056967554 -0.088502501531698 0.315918110549317
0.351692734588631 0.203178742788956 0.331002404275204
0.822568577458995 0.040854913147296 0.651156310150259
0.408049433572441 0.051315952828735 0.383806970270893
0.074526660895774 -0.011037725897954 -0.346825076524254
0.689093155362179 0.302451584423851 -0.321840203987093
0.635400889451927 -0.237720894584772 -0.623084457934464
0.594831729323839 -0.663222448161256 0.096559666723693
0.923173706076662 0.122475783124779 -0.261849961998077
0.460339032101396 0.048192933644437 -0.425322515642414
0.413262550250928 -0.124041017671666 0.569055511738144
0.752024971495116 0.416379150292652 0.653798251641187
0.251102119969725 0.055093668740033 -0.251199182294137
0.567966704730903 -0.463015103406182 -0.245408180424002
0.250560196857782 -0.448710652236343 0.459248448961480
0.496698111261101 -0.515747092499660 0.049788202658560
0.055415921771618 0.634709774443724 0.058465303952976
0.217162028247498 0.148011206754837 0.511199946188922
0.363253563208518 0.005504344889740 0.222722800942679
1.120580931032026 -0.126587842803699 0.082847949064161
0.418401483338043 -0.315587256119116 0.098922259866297
0.714267921119838 -0.075796528318808 0.591322891174300
0.582579493510228 -0.542015157890791 0.313867082883854
0.576318836014018 0.732104721519405 0.171160285632080
0.801831112159191 0.316282394536363 -0.235422422479830
0.647318611131152 -0.085003261009513 -0.647488736544481
0.660466726350353 0.548448816403944 0.516107593942492
0.258146022740889 -0.302075968572162 -0.145409363295619
1.052157708259726 0.015920425289717 0.125054101016469
0.736825711909132 -0.189885498284507 0.378699315777704
0.215243952123497 0.143101824615382 0.208068164235618
0.591239444637997 -0.517989060263723 -0.413910661234928
0.763210486356536 -0.040856617270168 0.680687401764697
0.022506630008322 0.218965749686253 -0.185175105794680
0.464784563247697 -0.086725999044522 0.737929699592608
0.545859496793522 0.132559982192830 -0.326010719628348
1.084507744453571 0.445309124390019 0.306580789191924
0.146409099512964 -0.258359331620576 0.278082435757022
0.775344927035347 -0.005142784538941 -0.398473490494541
1.141869620006927 -0.262324784557187 -0.058390968626602
1.054506827551033 0.053299985403255 -0.071331355189252
0.857133607133080 0.193659436458461 0.411177146022226
0.749688792909948 0.438371600108510 -0.113477272757256
0.585271050510118 -0.020028092322948 -0.459543470444655
0.393533891283584 0.633448538931512 0.222128382280464
0.256944190539244 -0.001027503740474 0.824843952906693
0.528710653892795 -0.309540068293322 0.230238343059943
0.762284763118158 -0.169142694995436 -0.026719239988402
-0.165683789624174 0.119046717832293 -0.134946329908976
0.749233184236700 -0.037697783013224 0.201217339977827
0.717586625198009 0.256136013474813 -0.359310638668357
0.718668226287109 -0.381655226863171 -0.054541806251297
0.332798806233367 0.025447437426132 0.509277067392640
0.176071401811245 0.353451617964879 0.307627765539547
0.445546299561959 0.292704768873119 -0.173241220615495
0.653904477720833 -0.244516295780915 -0.453204901674817
0.795957582638965 -0.232890759032765 0.594318998789555
0.717132979656060 -0.437301750655014 -0.063848600811373
0.219220730716159 -0.379616807145227 0.365031676234603
0.638558327354443 -0.185780567862337 0.268408876101732
0.989113126502654 0.381043205145365 0.149952193713509
0.298020671945374 -0.363196047805074 -0.043887715534157
0.257018776740119 -0.175032450645700 0.646052225037116
0.039805477528971 -0.121577477957676 -0.012386735613847
0.917838281844065 0.368601979074922 0.178743962533422
0.902435072315283 0.347523415143033 0.096297742836995
0.499713480354591 0.165474987748887 0.538554047368305
0.550384094765935 -0.067629764322902 -0.466228542060494
0.789315704856844 0.506468835890036 -0.094678244172730
0.149700821548589 -0.017837105941748 0.005242349696670
0.524394285811941 -0.122615364686575 0.576396914995205
0.245903532715150 0.094390220183043 -0.503396307374937
0.745079205419994 0.404468448938690 0.610609315327320
0.269107915154934 -0.092900042356101 0.470758906917908
0.097929613965152 -0.139465189320085 -0.475961169703404
0.046188668989899 -0.003482552860338 0.318333502294193
0.357374147500121 0.040499972229170 0.547882191820314
0.068302493621519 0.210401942773833 0.163644454287123
0.288756545118942 -0.442141216348941 -0.161097336460889
0.485671063990631 -0.400445721390658 -0.536582643433994
0.550580685679290 -0.108967779725326 -0.506499768739675
0.401917149247423 0.479753049693035 0.059941856310187
0.865473365682118 -0.049691497174118 -0.468964454814033
0.478739244951430 0.000989536867401 -0.423633390795005
0.395624392580229 -0.028726228731614 0.801743336672709
0.584322689441410 0.293783730181370 -0.493597436290908
0.766314997956585 -0.094332608682865 -0.281773560700406
0.618324834095052 0.013796316786108 0.423583929459046
0.561267429016079 -0.710060469188648 -0.055655973591973
0.737874981259223 -0.121589779997931 0.173445365132544
0.838009888129963 0.467271812431323 -0.048669331339577
0.077017099111883 -0.105425839035500 -0.340950574251143
0.503333115554837 0.119847389583278 0.643888381924950
0.077826264850291 0.269731318971242 0.392486037583053
1.140738426952118 0.186804486178861 -0.167078042393525
0.324695224979194 0.207347425535535 0.287009936588781
0.858058252770030 0.351182558522153 0.119035625652271
0.958545247776005 0.241505345417069 0.588590047101554
0.608068102463319 -0.130401739478958 -0.383295495042093
0.412668682602308 0.017102650993451 -0.536021846561487
0.862106992287232 -0.220538623075031 -0.003229625558883
0.670553617597937 0.052492485905843 -0.094603144751872
0.369567477647056 -0.455564981348997 -0.306046958685785
0.103757491488718 -0.187283486282717 0.467771899495118
0.091700640569747 -0.108999220437418 0.159963029467969
0.895778337855599 0.298285104868109 0.049126384843752
0.014411010173398 -0.043738696320506 0.139287619920215
0.546757183464067 0.117346808456776 0.606296675541540
0.211871958837491 -0.292874516060892 0.084014145476932
0.178459787573024 -0.213780197400259 -0.546372399188881
0.710344657217442 -0.311861939614060 0.432062796649219
0.236233220230234 -0.581793545556731 0.410057377860161
0.944003122177468 0.403054920379564 0.119605920354501
0.173755746007000 -0.081613899705635 -0.519484919630047
0.562153788547386 -0.247967219593774 -0.106810617822435
0.354977367588021 0.248487450453601 -0.440320430120644
0.748179346738658 -0.131885356407602 0.559305840451158
0.719539397985300 -0.504032183265279 -0.228755922793686
0.510645956796563 0.185148057256695 0.687586261015011
0.399215696140671 -0.081663044967501 -0.553048652749858
0.603935271212181 -0.399412071584376 0.462767854183853
0.404796824749861 -0.028306453125515 0.662039553964487
0.449166714352194 0.206201621438553 -0.066191907121333
-0.286158825892033 0.021927478229181 0.194039741047719
0.578370943193374 0.015782568806868 -0.447616701202254
0.342714406342289 -0.578191754946677 0.190781248302110
0.545693520500542 -0.552455065211698 -0.084727469757315
0.938675241918578 -0.355323354632336 -0.392600010761495
0.867058323502647 -0.410304877252784 -0.435236336213517
0.426217085402532 -0.346441107627262 0.753146719771220
0.735570869469636 0.001463112780572 0.506062789693941
0.235375150476549 -0.115205844466836 -0.233031402978448
0.863632017618703 0.329032733061743 -0.152561092831566
0.255188726461767 0.045256019900694 -0.181856558989040
0.461422019472687 -0.144662901802952 -0.144101858032611
0.324285303652395 -0.255784032416703 0.703093821074015
0.545628826197248 -0.541598183674813 -0.324166283228168
0.863135287027386 -0.097386821067132 0.618402662950826
0.675899556086875 -0.547265686060395 0.132245476599296
0.331276970963529 0.170250834669667 -0.398498713828347
0.458430557392406 0.458273541878907 -0.237543958551457
0.612033758410709 0.523397864933717 0.539111673772372
0.815064124129075 -0.492980701336243 0.228687022757312
-0.183444963642583 -0.125566031971055 -0.352129998162603
0.857190435402360 -0.330873901179835 0.414252408819913
0.336512437754809 -0.145233107186550 0.737766234596625
-0.048815688585989 0.282580894945935 0.423556481078338
0.484014909216421 0.261239004129850 -0.421989405994222
0.858843015762693 -0.087249777144649 0.066449211069108
0.084000194741365 0.005975850753023 -0.461692107588107
0.154632386954940 0.676479808323614 0.470226587388683
0.679987628277957 -0.609011525926901 0.385855415876886
0.206113897057828 -0.429342829215251 -0.263304134179322
0.404320238685336 -0.144308169544003 0.687450332349244
0.357496262598064 0.433826509354457 0.234647734474609
0.879752454412211 0.189814574384899 0.576972760607559
0.099114889671966 0.222057752419520 -0.037861687856424
0.464012142222157 -0.061336943374694 -0.104127331947258
0.257474762464317 0.019545108704312 -0.288562504450807
0.731694013095075 -0.411521730597741 0.252418972070720
0.685259389408847 -0.519267443372604 0.601442162680341
0.182824001764795 -0.408464683262569 0.341895144344579
0.359015236172077 0.498798647481451 0.465518923925736
0.869230907285310 -0.084053865070565 -0.184067867486716
0.955485030492324 -0.334514916776358 0.089399364112176
0.537581677895433 -0.088943180557883 -0.382916955939456
-0.023918763186659 0.265168891906091 -0.397764774782954
0.314342357342080 0.283237734335429 0.645247857636248
0.526441535094509 -0.313696377850968 0.646986913140502
0.792605424805623 -0.351362344621892 0.325062023696273
0.236522309474801 -0.171786038420957 0.623631417223529
0.366636441318937 0.203954701349872 -0.523814833665100
0.716126106729145 -0.003911018446841 0.799311741011811
0.529407176084661 0.047051615472184 -0.392805269444693
0.927908500910745 -0.034874763580320 0.416244681348952
0.599454615337868 0.497810729445328 -0.249730684298861
1.171097484898108 0.342975919645916 0.025389158779533
0.263745503046551 0.099189112253565 -0.128347035013415
0.806765008477198 -0.419662443948243 -0.417656723306945
0.565487118971711 -0.145447716530631 -0.337426980383078
0.024054142849591 0.294298006533320 -0.118702730267097
0.359429181142331 -0.083023780351616 0.436027975243777
0.761879626409397 -0.202437412536838 -0.267070324124758
0.397760551006347 -0.016151288498628 -0.357381460558273
0.659233106600605 -0.248505346232091 -0.436598915141884
0.355913779916378 -0.313687195801882 -0.344924808209893
0.122816568460658 0.194858473630228 0.694500746294566
1.014718515667264 -0.281163200038195 0.382397484322543
0.629042995262037 -0.018406391634258 -0.139948953908103
0.191904200703647 -0.204609192400851 0.633930659188690
0.546449639697846 0.128699449211570 -0.224899879600743
0.559770433689560 -0.135935618255360 0.582148256763862
0.122578944990051 -0.468703505136300 0.385740576825464
0.071676611433774 0.188000861080799 -0.191921079811766
-0.165181657307943 0.057654624078001 -0.074143974495400
0.027715715218097 -0.179877640265198 -0.238615371288645
0.764630228208409 0.298791574493272 -0.353511912437110
0.237417071877174 -0.100690005517817 -0.243989245376794
0.811579578899390 0.387318607304613 0.473633872402529
0.505350288390221 0.026431277251169 0.614236737071656
0.062622673647365 -0.484485193647156 -0.283260522531296
0.173634035549393 0.334586421931074 -0.246054178944789
0.797725554845020 0.073622587846595 0.544975129687687
0.559787081697844 -0.380834535179756 0.805060317138985
-0.053235253113229 0.073949821154629 0.084639768066234
0.234197088173568 0.217726231707441 0.645075385796672
0.885047203856700 -0.250554478692855 0.060469235680046
0.420492647302088 -0.409588977967374 0.316538088582242
0.580658867527845 -0.019880556348919 0.602045670409485
0.227058375786094 0.518108488310827 0.009491299726985
0.542575597732402 0.600703075365978 0.279682863616558
0.121586020138765 0.462472620558438 0.095451815943646
0.535048270455892 -0.092842818698529 -0.538213269826826
0.827384028282567 -0.084667892915152 -0.099993131685619
0.016813996989075 -0.379294001643102 -0.372817596400669
0.551825171049237 -0.176992545853772 -0.365870194007036
0.100994964267512 0.310737358635290 0.403818342139899
0.517868537108754 0.117285477779721 0.450642748364572
0.962624929798596 0.292292397012697 -0.432227486110233
0.090687431302910 0.115889709518583 0.320481706671647
0.428447477238348 0.060232128826286 0.740433762950732
0.484864476108409 -0.366444436256076 0.123760463957682
0.641253766123936 0.079245247179352 -0.198365397810628
0.386004086693994 -0.151349588803450 0.581595207121733
-0.028314353174631 -0.164050709797170 0.101551906560694
0.397889771780545 0.100952310842174 0.318360908812984
0.603179125221525 -0.075744567297344 0.745416253191092
1.073975330544340 -0.494803635057550 0.203456111874912
0.802905564768371 -0.107462912979954 -0.252881531153157
0.555260043876202 0.555168036455561 0.043627762167355
0.626626768824395 0.189482291210108 0.430672349397689
0.175218220314035 -0.276960688677458 0.137704252189239
0.266723491557843 -0.237544485666612 0.333881697643639
0.425698217030799 0.070881608545055 -0.323292007663477
0.430809508968594 -0.078624959028576 -0.330094206744336
0.596362601947001 -0.453555027999295 0.417307220349212
0.456856810654946 0.058468460819681 0.646071493324780
0.443148348597703 -0.084590411368287 -0.485628324495680
0.391869411712107 0.427027604633289 -0.182465102063112
0.965964779541809 0.049366436068475 0.295535556334759
0.771674304968892 -0.384515314859931 0.223810878530261
0.321978496793817 -0.208598906665162 -0.051085660110908
0.984924443532701 0.521483375311199 -0.120128918166412
-0.014254463012502 -0.066907108920652 0.420167170611475
0.469615284357582 -0.189299367625337 0.549774523060749
0.539136858876063 0.372359320843243 0.470874155831311
1.003128091040811 -0.384234510156518 0.103199036285202
0.420943206474919 0.078006029389681 0.463614811559420
0.430515107941625 -0.258676432517034 -0.240253399238979
0.339050168180801 0.094194890669864 -0.408137953626157
0.660032618867832 -0.382970167300464 0.187757975213315
0.578598108650957 0.054705234147528 0.839721645505305
0.340812721822764 0.746064922856595 0.128383433710374
0.700586892364965 0.580246803847376 -0.009035900644369
0.421487843042949 -0.113585229958242 0.725602904126087
0.131385661194074 -0.267602458414117 0.071132513232345
0.663373886390358 -0.142086670131857 -0.467828061848956
0.665957742522743 -0.046862896909426 0.394927341438080
0.325700857581135 0.328303303034252 0.456138691996311
0.499284670169202 0.111826422797564 0.397006124164125
0.225368705555839 0.554017426595402 0.172738366831781
0.719510793645708 0.166642140171322 -0.463496227520948
0.056339016127088 -0.134878348773051 0.558907843972270
0.366795347107385 0.216699461003324 0.118469849405381
0.538403731520457 0.006883895218206 0.574180279219128
0.455910183840538 -0.141458875522772 -0.401012608463279
0.519085037366644 0.196769716678012 0.489710203061136
0.675617907084023 -0.219730666716735 -0.467109192883534
-0.028481334879214 0.010532073050086 0.196965193765103
1.036835655494518 -0.397198128800693 -0.225904347095855
1.136820889470733 0.109546119239076 0.138931566812866
0.623109872683222 -0.412350898141156 -0.107507777829227
0.796766954565275 -0.256976274357545 0.546040706564329
1.060469686065580 -0.113436396795612 -0.048766028392130
0.639911402795837 0.005305486169140 -0.512190050286592
0.462963371337767 0.109818469565125 -0.408672414343458
0.417674219604315 0.035354184122062 -0.512665650816388
0.735357005813285 -0.207793341475347 -0.234391659216134
0.716518146856289 0.126491200683887 -0.293590775259096
0.852794260684508 0.011101134776075 -0.338077068943379
0.469738658385156 -0.081891985480449 0.811879178741931
0.154467033755406 -0.235313540443879 0.730275675685535
0.472349342003169 0.026511381818278 0.656248735784397
0.313459031978869 -0.276496245126448 0.780004324913670
0.322595795086627 -0.312053084303709 -0.281849895165374
0.727012247088382 0.676978777244829 -0.315590041974468
0.768740749606888 0.160959820481269 -0.172847065690696
0.683738435227301 0.141382551498348 -0.624289253534339
0.172772346918670 -0.395691185610809 0.491167229718095
0.411190936342679 -0.364612964017925 -0.291570757557591
0.538362454661468 -0.030422105843161 0.608998308858042
0.330356980047634 0.124837638892629 -0.409971170376821
0.933085871066233 0.172635286531350 0.149185403161903
0.252122066452287 0.592902233972136 0.151096619734691
0.795666420557690 0.259668062005498 -0.275864064811281
0.532668294998752 -0.536995870540150 0.455763847886285
0.461454166013193 -0.053156484258930 -0.355032412829508
1.053438717913399 -0.116931831260506 0.026179007503579
0.098302967253858 0.076508584948610 0.693346791312996
0.464705669450403 0.299219967768997 0.626770030419297
0.346716503480803 -0.613032606493072 0.224467831354312
0.390622139959244 -0.436578715245274 -0.049192538705113
0.784208741272352 -0.142623159672346 0.336665598321188
0.843777403841064 0.468536797724144 -0.159678635204710
1.016981438571836 -0.019006354087059 -0.171490850381528
0.182040620945848 0.236961156794258 0.022630636743946
0.781884443441781 0.456409035923402 0.463957976791256
0.118538731916992 -0.325413063552109 -0.467926840138480
0.388096599805638 -0.102761158817187 -0.442815330512493
0.223906935969781 -0.437086963805051 -0.281425619058033
0.528381736068370 -0.041989914212631 0.513766724682369
1.012435077128941 0.441693182437508 0.314252041395022
0.815361821272360 0.201940168452561 0.343057836296992
0.737491009299281 0.108940079204557 0.624585237525929
0.606676657399050 -0.013726421694073 0.805760942125358
0.304909780960289 -0.302928809651605 -0.268281042524771
0.894563968868552 0.448241377193192 0.247044198453054
0.616206115779112 -0.167247784821771 -0.281359922846366
0.905464923521188 -0.094905344061509 0.133356284936395
0.504977786785983 0.047875476852751 -0.478118865666857
-0.023910421840650 -0.024286129888112 0.447831398491923
0.512582339117333 -0.241890561549248 -0.081776266995714
0.433502785021478 0.241091717676528 0.352663027251497
0.667458348289248 -0.378129122185568 -0.169340756185881
0.955167381262995 -0.180080110853876 -0.283155712074839
0.394337589204842 -0.268004910095373 0.463363498007061
0.456655243949587 -0.389511334742315 0.498489972025411
0.889724638863197 -0.258542065343680 0.223276133404472
0.887877363899487 -0.258860698369468 -0.125692536613432
0.756328060108309 -0.120001869808054 -0.294875810506516
0.291022177155611 0.379949695943089 0.361157138583316
0.404645396895980 0.019114583336687 -0.519837067260314
0.970373338141645 0.351919026678504 0.350827383491421
0.761306654711570 0.242321669608210 -0.228134327239436
0.702782701784066 0.005213247359726 -0.705895321315267
0.237867067560762 -0.612567292628764 0.569382513533070
0.345292095691854 -0.214574098540645 0.323462619575512
0.225558790618888 0.133834694393783 -0.616119933189571
0.609751751593443 -0.098579853258327 -0.344905009998456
0.479975998048074 -0.084636434788631 0.852389021236019
0.403918734519361 -0.173323065927616 -0.187200676359219
0.744806473593949 0.082939294878387 0.390022009500679
0.987001260651302 -0.196188278351759 -0.216897325146876
0.430503163244404 -0.289045262139121 0.568744779780885
0.666922491623078 -0.017530862566080 -0.547294985644373
0.294453177606747 0.180987939803994 -0.526812919823357
0.409269484943426 -0.332580077891897 0.222441953835502
0.686798041316146 -0.048185292046946 0.751049140802144
0.990867108725102 -0.199939239779916 0.182287105580748
0.458976821829865 -0.031855784259031 -0.544618055436228
0.555229340394018 0.416529031602767 0.557624595765152
0.173998303624625 0.059636064058546 -0.120703090439682
0.208433375203496 0.381439422218338 0.238464460726761
0.760154961917983 -0.376955250199544 0.272271119270082
0.757587454623961 -0.389157276960699 0.283873932350991
0.807017256109106 -0.408353661978123 0.280330128294135
0.804452138805953 0.196708249792850 -0.177564336979856
0.048962941055653 -0.417381512846702 -0.079454369711056
0.469781991286190 -0.130008086785661 0.516662197541461
0.628227858597085 -0.098490570633391 -0.576786422091396
0.830243294292132 0.435486063375031 0.233870205685451
0.125574572488249 -0.241469293244892 -0.073562946225133
0.367550806209651 0.378656490570456 0.491898964365721
0.619594851950025 -0.048854706298320 0.617098445629474
0.881701641183116 0.429303374795799 0.378281959577233
0.315294798057678 -0.149295174960485 0.280121463535509
0.438693340470701 -0.047950979143813 0.833963600656014
0.620227835013917 -0.452136692484845 0.126421861647010
0.697866673126272 -0.492597778314956 0.227970288405361
0.571667523890222 0.247582054552654 -0.543835776934288
0.457807033984420 -0.620724096226334 0.244358687535402
0.549118503638100 -0.010251610634882 -0.472671698564325
0.467482845762451 0.555991000331841 -0.158906909892925
0.903833417607450 -0.237331538448172 0.065590133918883
0.550903184687651 -0.103280178615629 -0.591411633961635
0.202319436770930 -0.167410717945075 0.593445625575110
0.682784652822901 -0.053389170945819 -0.354808609198665
0.082998678056991 -0.209275134482010 0.223019610626049
0.616992918208085 -0.029603468954447 -0.424079665879468
0.711585739189985 -0.238598307134763 0.643244707182978
0.408307792311771 0.366193078681193 0.563915883602774
0.676353593711324 -0.161684973346494 0.453168064201877
0.880726807923151 0.145888490034026 -0.002521579619974
0.100824769584889 0.241277328199339 0.552636242534644
0.150835214414307 -0.488443467126821 -0.237728672707227
0.324726785051045 0.197938604944101 0.677338577742653
0.104026156987037 -0.233919360514190 -0.061261714331773
0.105764129456109 -0.328530518147756 0.147966548816361
0.377401733712212 0.008592073664035 0.602180133484329
0.642548956547772 0.461182049429745 0.272905490771994
0.721369435874317 0.409262557457115 -0.111200861671407
0.571281181831263 -0.012981419691806 -0.506264485689892
0.425478886836490 -0.294757523067990 -0.040631576617976
0.459786701993669 0.227292825551688 0.686109036093889
0.456492055728009 0.149261379984914 -0.378993478006506
0.455906796475960 0.100772271523056 0.717987841115302
0.627215424710867 -0.133102435882429 -0.405214215439674
0.293716341703847 -0.248340693765544 0.215587170559806
0.100375315151639 0.654128924043223 0.345915666043937
0.766602090842609 0.273039111552209 0.597695964678447
0.461231981332770 -0.071684833133006 -0.128728218588511
0.831240433992201 -0.118508359732830 -0.459203641894558
1.023338015898372 -0.176094830349517 -0.384643542122116
0.631493483603831 -0.013224862834152 -0.517650953358316
0.603338252317910 0.039056217644436 0.572369865749438
0.058015514785125 0.156918872027154 0.106199760829164
0.844021773709436 0.013983539504300 0.323119956868793
0.194007846941844 -0.124323475396944 0.535564823757201
0.677522643603640 0.297741976903522 -0.167739727502492
0.683222759649294 0.034204940612344 0.539327303887135
0.422940708482727 0.076515841413675 0.677067900951527
0.837131804586584 0.284041410911986 0.301602423313915
0.750583622387642 0.154394493430423 -0.392737985065911
0.182002881572354 0.069386238321104 0.376679378832032
0.399515175118449 0.639347990014610 -0.027171646306261
0.242396893521541 -0.017798879458214 0.572178403658090
0.597509372458905 -0.140431544967861 -0.368809150389260
0.802122057794280 -0.064482586272281 -0.315732642013701
0.842400671142596 0.102719057514593 0.407035957916691
0.734277639958810 -0.259723276796734 0.752465650510675
1.006397654910010 -0.061873698150323 0.356477784922472
0.518239724403316 -0.077307748610842 0.755687580653802
0.193040017464040 0.322245765341882 0.631628185050897
0.348966501971995 -0.446386241898598 0.369303958635994
1.074943188960265 0.382368904062204 0.081297549650734
0.405177267973979 0.071074209012637 0.642913482841082
0.757533843096884 0.024235641959159 -0.377766886289217
0.466184014011259 0.147501602865710 -0.243488399360868
0.410041534217148 0.078869262557940 0.684355085073649
0.503333610826614 -0.091596676507559 -0.482771862230057
0.408279311136267 0.056027515615538 -0.402917704936115
0.636897987605531 0.002102319723247 -0.298777735890882
0.344432801395703 0.263878573468012 0.680178347672249
0.875010178202554 0.322056911707074 0.480719655794422
0.586773071578469 0.085251018111812 -0.465670504666441
0.478012524914533 0.120114789713367 -0.047538481261343
0.314265524905605 -0.129846558799907 0.654972871448725
0.567864416950081 0.461786159250763 -0.056924745205685
0.016916402414697 0.151460942578156 0.607979316864979
0.576517799430832 -0.344094860315942 0.505745250220078
0.455264343037184 0.425381149388548 -0.188585118610542
0.689965180684751 -0.150299261707476 0.747053581073285
0.987011455694147 -0.183806784977814 0.420843781688721
0.443036032266886 0.047220569003956 0.779151837306916
0.665661072387020 0.295134569038205 -0.238221784429760
0.330256417890819 0.122029404001800 0.571572244751144
0.470877515440570 0.279736652442776 -0.480122139956241
0.375544673981968 0.097884686947280 0.582888469887618
0.234127712721017 -0.344043828353096 0.739036640795833
0.569229237307328 -0.046122555002272 -0.559802903864759
0.861688580832178 0.556177530276821 0.157860450766642
0.613723355316533 -0.138648591746439 0.542975621355921
0.921934921164509 0.302975275357284 0.132179772636347
0.447849989449241 -0.500477571442664 -0.164801774238237
0.590930382918551 0.041963030612919 0.387362552243583
0.180010079636084 -0.429821601256553 0.483692796360223
1.005590676382413 0.366539499976702 0.268390426196131
0.596981273059685 0.063112828869378 -0.321005971730402
0.358920056622805 -0.074233009110578 0.548244517454746
0.472797942345621 0.044064472515485 -0.162172332000564
0.069435033446203 0.368563261403524 0.573557762059670
0.031050201636166 -0.463861053672055 0.424639894908205
0.712601760969927 -0.010001163186020 0.555159877310971
0.587914693598365 0.101640816074449 -0.307436357993849
0.437048920787815 0.339807600362982 0.158505098405015
0.202672655863598 0.083820935037469 0.180183621028961
0.468271167271571 -0.280746519958588 -0.214071577889553
0.732012276620567 -0.044347532494946 -0.218693581426575
0.935653738132306 0.541936111773669 0.546750046211937
0.410955863469234 0.057199529652802 0.539361724833294
0.480724864767001 -0.430086526166181 0.397408121052009
0.335712288257101 -0.032879735963268 -0.335306495268035
0.686655244294599 0.504347590045446 -0.160132696335262
0.074693749553650 0.283002868873962 -0.055810642238006
1.048554420959330 0.154471878408626 -0.254426123791184
0.589752595044537 -0.067720755287528 -0.492147216382403
-0.102502178591970 0.144690621187426 -0.085624335985869
0.205457398841170 0.444457461888196 -0.104122513099491
0.359487066882110 0.306274203664361 0.313566110205276
0.547965236715512 0.324551149378120 0.493574626583957
0.620227895989729 -0.043730640440337 0.590357927044686
0.199935154199773 0.326988213245148 -0.061618998875574
0.274682514429691 -0.193171990331056 -0.362591511680918
0.490812780235553 0.228132426785504 -0.274597438866166
0.478666752429431 0.196027856252378 0.543288852824807
0.376184357914313 0.506629685403860 0.256953328415275
0.228563058000927 0.045123644983045 0.357474034072876
0.582586913575557 -0.117510317721350 0.645381561853005
1.039211859812816 -0.003522373061744 0.012060487156275
0.718979145640491 -0.017214777549349 0.606084238387795
0.103128986206141 0.243342180895081 0.197882497455163
0.669014969838050 0.324736615534321 -0.270887863603444
0.494153756154479 -0.064166198720651 0.317104295348834
