# This PCD file was generated using the MATLAB® pcwrite function
# from Computer Vision Toolbox®.
# .PCD v.7 - Point Cloud Data file format
VERSION .7
FIELDS x y z
SIZE 8 8 8
TYPE F F F
COUNT 1 1 1
WIDTH 869
HEIGHT 1
VIEWPOINT 0 0 0 1 0 0 0
POINTS 869
DATA ascii
0.176253161300968 0.072159541735328 1.484115022597368
0.057698599445522 0.216562718262057 1.396229645328781
0.664676023411899 0.253080851584286 1.240080630698202
-0.628141070936734 0.271480151262465 1.263670968398380
-0.472438503164095 0.032093451868366 1.414304177429453
0.694806256048613 -0.114500779988332 1.132205789226687
0.367123661725413 -0.040728650643710 1.408602651053177
-0.325161358204285 0.032888972033544 1.460152391176576
0.090139696136612 -0.155516388615435 1.483676070912398
0.782696057378301 -0.240257148405325 1.099880570844906
0.553702383036019 -0.194254431459428 1.252532820305290
-0.067699653027535 -0.002015920047202 1.515963812413380
0.610131789364039 -0.312328267798035 1.265534637816975
0.153574084301710 0.190048225736163 1.449061091862864
-0.005545735390235 -0.010243224080845 1.520045769451015
-0.157038633010728 -0.102090977630381 1.488963257884875
0.597736613359113 -0.321477388120699 1.196200135159674
0.259055460784408 -0.019945944355161 1.478339936780983
0.807312210737479 0.186952831156261 1.021949617057742
0.139293395697057 0.038165805152170 1.517241151150283
0.018964510839163 -0.060669142691898 1.516429414736140
-0.232542939275877 0.048370372612121 1.461671755530009
-0.090248688251129 -0.015365753426503 1.484464510606078
0.167566033473156 -0.066032569027738 1.491897670448435
-0.482811965380737 -0.202121026926543 1.375394790736026
-0.143510865151790 -0.155689275719773 1.491873816025556
0.465237674008457 0.118826121659491 1.316895948451887
-0.267964681396436 0.062107753560360 1.490227681788675
-0.239724784845795 -0.038428611843258 1.479006410286994
0.707430649976806 0.113016902894119 1.212896553986043
-0.376122524677020 -0.063960645596112 1.437197016313254
0.117609805018726 -0.074942889416763 1.495764616844133
-0.087643461826096 -0.001875704164727 1.519739433731538
0.586531272962269 -0.058552383893831 1.336741903090991
0.201915188393445 -0.076106392837299 1.508448869127981
-0.048236547013193 -0.007842495031757 1.508290116486132
0.368210159833931 -0.067539633680203 1.386688623086362
0.347159525727634 -0.074227315600219 1.468763170858931
0.185249083659557 -0.126533458607752 1.493792288654212
0.615865568753529 -0.239711128482116 1.283761938132107
0.566234712217534 0.262423904665212 1.299657302578743
-0.002166906406195 0.013021827744176 1.511929961828645
-0.503398234399252 -0.072861646194951 1.406510117431667
0.323345361162812 0.016067684638050 1.480264235539637
0.104231099786447 0.208734965370479 1.453943733839865
-0.014826935564099 -0.045163057755333 1.522046940826742
0.173179081199728 -0.030198036307607 1.432357013898706
0.035677919292604 -0.013271566026934 1.491093024897199
0.214774467723171 0.089320820229052 1.493222840236470
0.291668231738117 0.008044706337443 1.461114973453147
0.295270934691191 0.027627763721567 1.366748442629288
-0.419997669465060 0.062673262245758 1.421567943500461
0.703736909021531 0.075404545387459 1.205071630359004
-0.529294460365379 0.183116687240964 1.373380644443514
0.184673204517211 -0.191992264250773 1.467591081403114
0.778362442182389 -0.050315732240004 1.175690563563110
0.526850675527776 -0.244348982575878 1.359265512135381
0.026462873893162 0.127272113085713 1.492504728693137
-0.270869071249525 0.033640268517407 1.474972537134315
0.377060969067019 0.133865919236631 1.452441183829588
0.099587961512590 -0.016421221360215 1.507851434429971
0.841493934516089 -0.098303315889141 0.998667989956380
0.056326758490465 -0.053900932325842 1.518543544065114
0.461013848718737 0.489013001471427 1.107436491580336
0.538339238962807 0.133388202077513 1.252592874159916
0.738481955125697 0.486891780883602 0.863720738340583
-0.602373185192768 -0.043366270060184 1.345944410251636
0.599008875792573 0.206263066753377 1.274751456955651
-0.073554485808894 0.053835910076469 1.510461131773880
0.473259804098343 -0.272179780113623 1.373438874359422
0.727466839699035 -0.060251725023973 1.152341233481384
0.193602201059117 -0.032174532968367 1.488721382090783
-0.576771738899045 -0.373422711030591 1.235033436169197
0.127397197745761 0.029135413700881 1.513214828779413
-0.612429441008260 0.092991208167549 1.337686889481752
0.060996775977191 -0.017758702462372 1.518191088100443
0.138049478470747 -0.112420933825936 1.497433443989509
-0.154405185939475 0.034471380025087 1.513422111460195
0.698024201331525 -0.238453397499170 1.005955821108052
0.380578072114082 -0.152559342328536 1.371366487414271
0.327872489160207 -0.129408455053006 1.438551819946792
0.339384060955113 -0.001341090764967 1.377788346140441
0.043988944229197 0.105098345867353 1.494348096616851
0.198531131828653 0.045818217743632 1.481609668422245
0.072401151107483 0.040746706280590 1.517413579229267
0.067484852699963 -0.069456467972517 1.510750592835561
-0.302258826615533 -0.068382537355334 1.471323557953109
0.485715093369793 -0.110012206419768 1.283757520279765
0.293099460996532 -0.085334069437390 1.415558805928942
-0.127772669576118 -0.207128355178054 1.444202355805751
0.516591092734949 0.209897781419328 1.368533287730663
-0.526460523268806 -0.290192466886258 1.336654483338006
0.446824866572346 0.159342212716040 1.322306422123946
-0.628924633213862 0.139873401022472 1.319903619623617
0.585144918877017 0.257839271427599 1.306263828080682
0.041671045720875 0.037733491254159 1.525659240238235
0.052178802579178 -0.046412453498544 1.513999645863703
0.526234271835252 0.083272318736702 1.370214876640970
-0.406454624759164 -0.116807396515038 1.415863476267994
0.685825759543903 -0.277709899061782 1.149298804685730
-0.552979762690585 0.199150412022456 1.338193153098411
0.398375547181931 0.202516035260679 1.429525592708994
0.071256900588038 -0.039611650378339 1.500413496034060
-0.142894810492984 -0.081189645694494 1.508233985454384
0.116986317845740 -0.074664550411639 1.501485072601206
-0.520552968523226 0.167298141027264 1.386223531187079
0.424424050201439 -0.110595506891897 1.290276568328265
0.670102386543543 0.439890000728123 0.883292247391242
0.096072555301436 0.060998706345373 1.519445866841750
0.154350702175589 -0.149142373488744 1.456874034455543
0.379685120030471 0.059560292765667 1.442051684758615
0.398949814716251 -0.171008328382107 1.433753711670961
-0.161225727885518 0.143281399767274 1.480160823597751
0.634751793018171 0.012590343075479 1.270773786944244
0.090339598663019 0.171804959260289 1.433810067575116
0.367890260175435 -0.069462165700749 1.395443881088600
0.185623558344684 0.127893814946587 1.352073417646888
-0.178586657879807 0.039694174021583 1.492948244958286
0.033915058774915 0.016846210084604 1.498299979308114
-0.068938618017142 -0.005814640084555 1.502025235755358
-0.357908533477662 0.126178617301083 1.454562661150543
-0.490433576626301 -0.120715622766575 1.379447541267924
0.424393932949278 -0.079613262621753 1.376018513766770
0.337949823142383 0.131943963140104 1.355037260533957
0.651068098309120 0.181381292722115 1.251935555687454
-0.664554608733008 0.145955694324404 1.289408542750440
0.706808859477984 0.040570672925320 1.228620663143147
0.360498486803018 0.017772870371113 1.445386074139563
-0.059982696489973 -0.042953907617791 1.481409986345271
0.804687295818380 -0.356669178097404 0.758120105778512
0.571670372799579 -0.186373420114975 1.337319380532867
-0.253572062310440 0.067437577577710 1.475817634810192
-0.021485838620584 0.288019284702415 1.324942318657426
-0.742347075964506 0.266735749352042 1.141736904130150
0.709737046272902 0.203362631415466 1.164244547682621
-0.554847461393661 -0.157253517923491 1.365105967452863
0.107353186435909 -0.067312834696897 1.477761520558627
0.448904765638520 0.065243722227329 1.294846268154964
0.152978535395212 0.039417532508482 1.509216034260934
-0.048457534153703 -0.124705705839613 1.480034444984592
0.309370781363312 0.131199825388726 1.461436662924442
0.366184147869161 0.094991820982315 1.273137937805077
0.170361949914806 -0.108051682854652 1.489660157424270
-0.464647707063924 0.146938045983659 1.396667685036713
-0.086837673139020 -0.000474294659431 1.461141782148715
-0.108859660815759 -0.091325152762545 1.500256000707043
0.762141897429204 -0.140891080506530 1.094286269613969
-0.573375033074044 -0.034853972758257 1.299081185749977
0.728307142840872 -0.421434126090713 1.031550531497080
-0.019149338741582 -0.076261506819032 1.494315626724634
-0.338608294633331 0.065524108440601 1.462301593545271
-0.079193821296534 -0.102071031658910 1.479375821911185
-0.027048292914039 0.056330396780493 1.522753759808827
0.184886916787188 0.005835131737270 1.510361464472690
0.413800042689296 -0.122195912174771 1.421936957806185
0.162993237791752 0.172208246208611 1.429254084036769
-0.352831290459474 -0.098516057674995 1.444196834789671
-0.232641075203542 -0.029243152006555 1.498867685232975
-0.047336050290159 -0.007288160192769 1.508278826589158
0.036812483443822 0.069696567878747 1.520503330523490
0.025650231496363 -0.012702959815539 1.416335482757232
-0.688618669713577 -0.172093038296078 1.194942226444065
-0.552869637386582 -0.290347494876924 1.308108747405408
-0.136179368468539 -0.003339238480862 1.503263744973606
0.737955727888556 0.024568321421928 0.987797858922599
0.087853578638116 0.027833206884924 1.524327718721101
0.654522056746162 0.255766489402750 1.249825422840605
0.093827603594180 -0.125133013432725 1.476838303708933
-0.564900146060610 -0.132848535260163 1.363785128647311
-0.509343545590029 0.010459683542839 1.364125841306687
0.625454933999753 0.284509546847946 1.158891733065819
-0.196631243359978 -0.080684504649595 1.465106934907194
-0.359176430109030 -0.051678274727732 1.450983717345038
-0.084193535560629 0.053627156876352 1.457471996343742
-0.377002633546288 0.078017779365848 1.434112212473701
0.170041396899647 -0.005143317989982 1.509902606783356
0.660059631331230 -0.127529481291059 1.191939224560454
0.467861518211091 -0.134362168173731 1.392367322702131
-0.306088771669334 0.177982481494039 1.443905610052259
0.088146146998752 0.032783774703462 1.484156470557368
-0.397162253793239 0.092204468960777 1.427146299271586
-0.374001721724726 0.064033064606097 1.443156370032861
-0.091788014670388 -0.033812227344802 1.488277236303300
0.084107741159150 0.082238752332744 1.503008136957826
0.386899265397731 0.019058211600814 1.242997596058470
-0.679672599114643 -0.188405244587635 1.223740365430933
0.637447444147744 -0.076836362032878 1.272711482365446
-0.207753928087981 0.050947805149356 1.479241776475500
0.411575646145167 0.101274506492198 1.431865383746536
-0.018162407660735 0.017653723236595 1.462010300877114
-0.346546195405292 0.006956496049805 1.473128172085603
-0.375426007379277 0.062120783862334 1.458848627222223
0.712137462755738 0.048496839106520 1.155867807645257
-0.234398894792944 0.232280000625235 1.445524370679746
-0.249333952780792 -0.063306947385087 1.481969572279800
0.201201995491881 0.087150430299916 1.442082460742133
0.473687787758992 0.075453312508056 1.395005460094652
0.024346229460209 0.028729165346893 1.520321457904951
0.660792017816484 -0.109681714161357 1.206453449719904
-0.360324906724899 -0.007731045846088 1.464968169091268
-0.316766353416083 -0.005322975442674 1.469541929890274
0.265776182646953 -0.029602717736247 1.475098373987993
-0.630557301705825 0.245807273983353 1.276225291027524
0.448062515085149 -0.289849478349137 1.296686870727381
-0.027356138080214 -0.017157807615590 1.515816205536500
-0.360440822303638 0.006458827547873 1.452697832074179
-0.373262267462781 -0.016839994591548 1.459464789554258
0.530231386148007 0.184116738445613 1.360216066788660
0.170130762805296 0.001375120201950 1.505617053151266
0.646677989607459 -0.403512114480009 1.178696453826312
0.714954661842519 -0.184659417459479 1.177297417062673
0.135796474423287 -0.109386132570322 1.468695708333835
-0.548437468225585 -0.286274385187704 1.335084557932603
-0.429884741730822 0.051622832918642 1.438565635598299
0.665979676812070 0.018874759228101 1.178796292301015
0.201310547011018 -0.051734712294945 1.465244692895771
0.848727309104596 0.096677517473686 0.985164599798366
-0.331299637060488 0.036515264397222 1.463068879750750
0.304661713608261 -0.003720984644311 1.414804780195784
0.656048008859945 0.237033294078774 1.122929071775685
-0.105801643181036 -0.003022852798211 1.507609413522113
0.525485013957388 0.268048477190809 1.361879807853785
-0.148049581643887 -0.141405915705189 1.445654478509702
0.199114963728136 -0.164123300210785 1.494336431786939
0.276189286352572 -0.223038063198233 1.431602052269223
0.418781428286905 -0.235144453888097 1.284916463980956
-0.191103705783110 -0.027031441805568 1.488554241878899
0.034960968724221 -0.079345425086946 1.482849408628335
0.602000946342117 0.096806744407203 1.314510219195580
-0.381802424278365 0.109230635148620 1.439244137659068
0.591375393421891 -0.331561417791542 1.290816993466529
0.261064051004768 0.162217943437664 1.409077386379382
0.524758504769231 0.227939884350284 1.264400680763210
0.282976208731323 0.001280152344797 1.489565183223557
0.069073692448198 -0.235734568014803 1.417541252577158
0.093975529398119 -0.219186716929582 1.472943109964414
0.047890273558630 0.078393912117181 1.508410985326517
0.583668102563752 0.040494234607847 1.316966900817734
0.367924820700939 -0.144730530494622 1.418632390157206
0.741370556162849 0.198121266824689 1.132169357769762
-0.130496391281747 -0.072089148473078 1.509885586237130
0.769811248402128 0.274408863240607 1.097557026554630
0.483277893914749 -0.169988007685278 1.368270352963545
0.303773569407993 0.040934902025736 1.456278997116698
0.487877224525390 -0.463474148596227 1.103562765667387
-0.251833901982978 -0.057968725554223 1.484878529313787
-0.019301556984397 0.019226305809156 1.517648471558143
0.235130471033100 0.204036934244576 1.360232642129733
0.296878648798883 -0.197429749160637 1.462371236311214
-0.487492642035125 0.042159576958167 1.356997534475196
-0.324781218254956 0.096266199211171 1.470854230608601
0.288986716513048 0.001046894454200 1.471948935751487
0.258436953763674 0.080204886623574 1.480556966574624
0.048882725386250 0.211799657815670 1.427388782263989
-0.114953637106661 0.027920052457894 1.517456838640211
-0.420722970375576 -0.152700533625739 1.427413413483237
0.217865364940921 0.066653153169428 1.499640299867987
0.504263394686064 -0.392938553784190 1.140180141168026
-0.439249406016753 0.058072630900672 1.422868474281680
0.511804914699103 0.225356376443244 1.366616617169012
0.257698532181616 -0.170174568120613 1.460312094294732
0.068349330459769 -0.000334718604630 1.519877720969062
0.020077805334418 0.010376827652636 1.519679384261920
0.356449824041688 0.328867523900975 1.321860780761314
0.252863355668797 0.175268266109967 1.461094139973500
0.109484883182927 -0.168482315285721 1.473768945676634
0.055177421297633 0.003675240690779 1.455576146137869
-0.498963731822625 -0.204320903451941 1.382713895861283
-0.572692831496575 -0.201629222437518 1.320324890936162
0.673321173718815 0.226569118844434 1.098388691530034
0.656531525439900 0.143423295562852 1.273605768065849
0.315332627068754 0.091819368067394 1.472190780005251
0.244247218151978 0.072332513264813 1.439155015413457
0.522446080656122 0.007464621907138 1.375896429212037
0.234716147670105 -0.023735551580617 1.428155803872956
0.836699292040490 0.016004407360352 0.977856139643268
0.119062763054040 0.049668950002696 1.409782532033449
0.603226953552027 -0.134306609541163 1.321777743776365
-0.296804077849169 0.082781294299860 1.482100447403168
0.747943985891290 0.157145891179406 1.082391562729984
0.017348514635433 -0.071019570440160 1.503703484378132
0.626292698162752 -0.016710923421448 1.206701696508355
-0.389275305274308 -0.045685841336176 1.453068486281075
0.232742458519285 0.016221456407563 1.498102277095566
-0.305258732324782 -0.138082015965689 1.462607536760304
0.661590111750643 0.169820581013515 1.077722003045710
0.361029537516497 -0.160164638812476 1.440989210011262
0.188096768944149 0.046069892634947 1.505261178584357
0.534541995256880 -0.049763527152275 1.330912087752096
0.041785629514794 0.115803915101071 1.504216474204641
0.679282076389523 -0.068617437130951 1.195255319433787
0.247164067857689 0.189955387494046 1.439474188410145
0.099340339531972 -0.068160435837721 1.501137130285140
0.439617777242988 0.159548961827379 1.337788456299039
0.289674561573955 0.014074084237456 1.488709880205651
0.683744493180683 0.183489242523063 1.155338601247695
0.137300481054934 0.002122248048141 1.437186991201019
0.140108911135795 0.017032356189087 1.515513255883921
0.391498402489000 0.137327462588129 1.352824245691584
0.458803835641374 0.025920420882323 1.423045925678672
-0.021583773177989 -0.046450836082355 1.524804389356216
0.359607851588074 -0.071706168988564 1.329625218117347
-0.237270005474391 0.102584187679147 1.481252581710056
0.280760583536535 0.094830748909880 1.423727653574600
-0.496329793380259 0.018323166702779 1.413105051300070
0.386150183953240 -0.004668903238068 1.459566302748219
0.460350206070426 0.221576609003798 1.352148417028259
-0.076173007950242 -0.172831034892497 1.466433392161522
0.578881136596776 0.002094122316244 1.356085790160458
0.461080680269536 0.297755698028829 1.380350713808369
0.234464422625911 -0.204647964460663 1.380560716281564
0.177653998019924 -0.024340096131043 1.372973876428556
0.084769942747972 -0.041552537630056 1.502888381565311
0.161777833766955 0.035046112505581 1.508732926063664
0.012978050272381 0.027980741456466 1.516547714745852
0.256053095095693 -0.070549306564579 1.485500291632418
-0.261410629483349 0.143733667224693 1.469840928329731
0.222165143961827 0.046402680834230 1.486290214636170
-0.110770085965177 -0.044186654340841 1.515214828975367
0.098335524583035 0.002561606063922 1.410039247018818
-0.264208998008360 0.027642244409297 1.485738171660485
-0.544648726952479 0.203061105945953 1.341393479742801
0.112994669259637 0.091675865793480 1.485297809201986
-0.454003291861708 -0.261952764720265 1.385017772606400
0.274849548353162 0.202354158357795 1.457085699134868
0.390827162189288 0.037662350768873 1.446056847620903
0.058074593527181 0.118551527452862 1.479054948672991
0.352612359727075 -0.242648672107689 1.436983163456550
0.574076956998399 0.015523273560888 1.313398800658964
0.157760680529322 -0.133736009923973 1.505052145287060
0.279932171049071 -0.028186973821589 1.464139490947484
0.041690371963587 -0.015549810338341 1.527178123397302
0.431290015046287 -0.105823691371360 1.345036580983890
0.682721191691909 0.022821961208730 1.184622070606918
-0.729893731632364 0.007071802257108 1.231181261422728
0.333023371362766 -0.040468690422135 1.391752724540461
0.492755036021620 0.435037730775230 1.142049076665463
0.364048803478370 0.027207493863821 1.464911529821240
-0.456659073683972 -0.078998746099951 1.403158202266491
-0.050707294426683 -0.147304663640673 1.485500567514420
0.119716277305805 0.131658584613821 1.471948291551973
0.217134670466226 0.063774901465608 1.459910690234487
0.150643040912863 0.011613888360166 1.510199383960220
-0.184624100879524 0.069925292915111 1.482996960662312
0.125400869663491 0.121432879180180 1.422074543477802
-0.364066793111988 0.116663463341689 1.441197588385362
-0.056139515641234 -0.168700985886733 1.459053328500080
0.504319128135597 0.324899095294792 1.169211286578457
-0.140348017882975 0.113913650965341 1.489998634709977
-0.081878745824602 -0.058614561041466 1.498721474035831
-0.250958279409231 0.003517356098077 1.477201354490177
-0.354827215550534 -0.021512783486498 1.466798061887407
0.364128787560807 -0.151122575743980 1.444037752455519
0.025120938386954 0.150967946465906 1.477558101653277
-0.080638037111956 0.011795476724619 1.514343560499184
0.513583565829028 -0.051903411092277 1.396563138748076
-0.375752384597195 0.072849072344742 1.441992883662579
0.292948007112899 -0.075462392490769 1.483856871378159
0.077601328156163 -0.193305150093741 1.472679314113051
-0.187665775695989 -0.172299829071136 1.473397986126113
0.425478618811264 0.245523386127194 1.360203995189015
-0.074063371006957 0.004160766668607 1.525776681112276
0.381975408365122 0.028461669211157 1.390185791910742
0.051938593819657 0.024771241273759 1.461733146814440
-0.394870448915046 0.198383444937203 1.399247954658069
-0.451136347860950 -0.198111073105975 1.410999846529011
0.838483993515994 -0.108033724665125 0.966600231863513
-0.498964163876132 0.146976271403483 1.331069293688354
-0.061989499176829 -0.122733240610831 1.498600315080996
0.773160117994839 0.204296420666357 1.010260821348459
-0.123647045183414 0.025240956400858 1.469314845549655
-0.414744169819717 0.102604783611180 1.436842410581217
0.274568646361015 -0.341715567447890 1.247237677781919
0.308285961362105 0.125319667969932 1.453195283312202
0.126299848574012 -0.101184549608470 1.436651557741818
-0.263012128245242 0.063703725587024 1.485791930894927
0.697518350906658 -0.222857118559297 1.208755794685921
0.586537603369702 -0.382782592746652 1.193781237590651
-0.308603861738782 0.002505564573012 1.473470438079564
0.601593101100877 -0.082690803679797 1.332829079559356
-0.075498975811520 -0.119985071541270 1.471585679421646
0.782634259776489 -0.255643479230882 1.102994095110385
0.512186918312363 0.085720200279428 1.324252736297344
-0.342338262110592 -0.049501428835695 1.446165814266940
-0.627411206083402 0.059339912638276 1.292236114839761
0.737182444788880 0.282742024979466 1.053777058978442
-0.241085729643701 0.067236000422277 1.476250277519646
0.187831181632423 0.150730753844297 1.445888623025924
-0.077065813937796 0.053752850169528 1.502349800512892
-0.176611475779415 0.052239801612930 1.508212409499507
-0.372206466178982 -0.148363225270517 1.425656532705820
0.846125454967222 -0.143955463346151 0.966206094544637
-0.166072666094451 0.148593679317141 1.468865314009208
-0.015438502025810 -0.177313305911009 1.428407930707720
0.022918998809303 -0.106374514624962 1.512209068526164
-0.645006402107451 -0.028762892910785 1.268588678700752
-0.427491163463836 0.308245879070539 1.355999026171727
0.509751142249510 0.010238845732665 1.384386413422325
0.425066978345294 0.268928337591931 1.290273463279690
0.789251554454835 -0.162916100956489 1.019677812902261
0.162033726228368 0.105355067254421 1.448927175388554
0.529822316732548 -0.090807794528074 1.340014667662892
0.082142227804781 0.063652213312363 1.505127565137810
0.059864374910805 -0.101366118759460 1.502750531826593
-0.480085460834030 -0.038150137681281 1.368265515301308
0.589275411664076 0.209699134556995 1.199312149221444
-0.564384473413318 -0.010359648765927 1.283030311551027
0.022875519721514 0.233438776347452 1.383497317443247
0.362781232317239 -0.003868224300288 1.448491601743349
0.180113531679714 -0.204366726764225 1.465140167358161
-0.112803110740877 -0.130777890628348 1.454916771555000
0.347005831138115 -0.204154522852218 1.421568339514340
-0.492440261855828 0.148061253218293 1.396124187450610
-0.230912694687302 -0.166186249050499 1.487359156292930
0.362532666377081 -0.020284788437505 1.460370581768703
0.242314816156110 -0.020868606943258 1.473692740513075
0.049148279640203 -0.164016910266850 1.441178463312907
-0.664587099213385 -0.091705543962717 1.274379078620215
0.369693182304116 -0.105293373859545 1.455225487429217
0.011498968435670 0.153927837662600 1.434810878033554
0.322155200174981 -0.115189725257403 1.367684885194308
0.237317554682439 -0.020138647430572 1.483789722116590
0.611834102731274 -0.431096964424584 1.125254738724033
0.644684655633385 -0.364466383725230 1.157784433478552
0.506219190642831 -0.341561158164165 1.206302522124006
0.171024422998553 0.080974277366669 1.510283549559623
-0.262907888837989 0.009029886532142 1.473714637486639
0.097039748255592 -0.026644290625216 1.521234043965780
0.690398213038015 0.096123044873408 1.175104717647380
-0.498060972904161 -0.043783801325471 1.402067911587619
0.178378981485021 0.001746476246342 1.508477556459533
0.182715163063694 -0.049478556010142 1.478372722658881
0.504112620839024 -0.204209990303274 1.384381999809382
0.380499618530952 0.117154965257994 1.355589975758603
0.418695717053644 -0.184802120726067 1.429403238240388
0.578568165520416 0.160113418146916 1.347228564945083
0.168651231476076 0.222759152376821 1.401288161389956
0.253158745376634 -0.200239785434947 1.440590066865550
-0.318491456759246 -0.119737296190974 1.475490557530686
0.866628767118613 -0.125780737522456 0.933287274610505
-0.247655593526597 0.187654447745095 1.462012832994251
0.604809580255522 0.161325412209973 1.264638019098216
-0.042729964692142 -0.010695872912281 1.527588097522590
0.464768249753512 -0.050021499079322 1.387848750316511
-0.694960115479698 -0.127243071324294 1.245185121588231
0.307527503859593 0.213374740088359 1.455602703441726
0.243999403150945 0.226082182045094 1.432751131803699
0.241438445659885 0.033723056838764 1.478456188999816
0.196060018570171 0.280124655478470 1.403468514921005
-0.398309614632107 -0.115206409215225 1.430693173520482
-0.061803566191451 -0.006773260785411 1.526063203816250
0.101892144333140 -0.024391847636964 1.508365573198665
-0.002790045430769 -0.041997724442092 1.522422925303345
0.206515684811493 0.024189817043498 1.502375828133466
0.360040207969901 -0.165428072908350 1.456037636767237
0.411754432662007 0.068544939005992 1.401443987008853
0.465684876508961 -0.032837123689018 1.402419469758040
0.034253105156556 0.149987100902596 1.465845047213344
0.245100642929828 -0.176189662443566 1.405210034009885
0.524920085737304 -0.022200134657942 1.218295956334971
0.397274874640226 0.133561795752323 1.405965477887294
-0.404571514731629 -0.025249586913541 1.447863574707177
-0.655330158689613 -0.040822043088453 1.304503208387919
0.402721752426764 -0.105439121367440 1.340172693885868
0.754127387165943 0.110107527127779 1.111607011275845
0.502125614246395 0.318418967827022 1.293218714607124
0.433619234214339 -0.216016938957895 1.344294204516080
0.509019309797246 -0.061547128705539 1.319600264614212
0.215414874357926 -0.169509375425164 1.386021795946095
-0.295297697747019 0.040985825664861 1.483460814324427
0.446743413925229 -0.349172822011222 1.149294082060342
0.350576823049502 0.210734220609007 1.372814019715718
0.139518123780434 -0.026988693566777 1.505308962303685
0.736058735608191 -0.200516667758389 1.158722362622578
0.242156697962152 -0.029385625470248 1.422519117889909
0.470730027602592 -0.384112876642256 1.303847537494103
0.247891263967975 -0.053001108084533 1.454272339055617
0.569281909341709 -0.109623189076959 1.218990871170025
0.421927075156622 -0.199456489380170 1.321308662381009
0.331295315950005 0.012820457162452 1.381596393740878
0.002702183136321 -0.083400734742761 1.465815948196419
0.480083125405320 0.071636520438068 1.352384727038021
0.211259136096653 -0.187555363782095 1.403422282916085
0.355253580762930 -0.216870482393671 1.434899138748567
-0.091311811758882 0.029043475466117 1.502669039138871
-0.311793342351955 0.074365988159867 1.480838522724442
-0.267774017209700 0.114311309569718 1.489300332562162
-0.152062769369597 0.147275137534538 1.487193918545194
0.200028738645578 0.094489330465768 1.491219926362479
0.404802118379751 -0.118927448387711 1.425809929909394
-0.162832663494120 -0.025438677067219 1.502832728447764
-0.097115532568328 0.019342860821762 1.519836226150760
-0.029962234595330 -0.041078603536615 1.504429650912038
0.823921861724322 0.132329327967508 1.032672805058080
0.754215580227897 0.393674589397880 0.976585852053807
0.859089885035057 -0.173654052825438 0.921223060478358
0.605354940275287 -0.286776330377690 1.244036958594451
0.395501058987100 0.047261377390162 1.393519981675714
0.001599730333037 0.063646345083411 1.459971638786852
0.057316556135855 -0.041165380339180 1.513396653796990
0.414041395403648 0.043650015104237 1.312535153484471
0.735614061927792 -0.045702916849276 1.020205071526782
0.256689922193523 0.077492650047816 1.483875378206098
-0.077002638937103 0.025256166139216 1.507938920844982
0.147514664894462 -0.154420225903662 1.502920980642988
0.093914747099262 0.032966609891966 1.489335295548782
0.244410713406179 -0.002984935639669 1.487361212281640
0.844755037771495 0.295100800239407 0.857056408702196
-0.033367208583418 -0.027107936444139 1.507863204057764
0.546870612141123 -0.037616177590103 1.292993596107562
0.833625429130061 0.145417390478449 0.884494438839856
0.240475527849384 0.135249690938066 1.478190908845867
0.184887582519480 -0.199114834792098 1.405215888799195
0.608691943094649 -0.120762401567226 1.279524623928246
-0.037162610443575 -0.056972838121358 1.499946121534370
-0.297898919150393 -0.006968639387717 1.472158015037485
0.583576552055215 0.169451173513706 1.320400603793353
-0.294823363853259 0.136911186526273 1.457203581787257
-0.468982212524076 -0.237186552773337 1.386270305001527
-0.097993432277566 -0.116974788510959 1.489264328825717
-0.656022420753303 -0.322303224567196 1.180461145991021
-0.213809698823143 -0.048871170379536 1.492006461474551
0.764876309362052 -0.047089448521520 1.128033648697501
-0.210530263841595 -0.050632971980525 1.483587837563365
-0.193533481536019 0.101230423775475 1.491917642809520
0.295088815132633 0.060428120028838 1.438319536297361
0.255119438584495 0.162421968349211 1.441026638755157
-0.366262457268610 -0.167352776104796 1.444130871735285
-0.110534250221507 -0.023182444801164 1.494533739268576
0.540199037291238 -0.023176274033837 1.360297159596798
0.645335422538378 -0.459063824501067 1.048345134707426
0.165132074611054 -0.098369511792374 1.478036239876819
0.506805201443914 -0.086283541083166 1.333057325076163
-0.349117399281468 0.109334719604096 1.457419396127454
0.377916582788705 -0.114987048481142 1.365183185421622
0.229141579572805 0.143194751306132 1.472785739086947
0.304912020250629 -0.161983730095620 1.417012611566084
0.615064683309219 0.297550577678014 1.200770173840539
0.172903318808155 -0.073497182566559 1.467077688350193
0.344886621132868 -0.139242820760230 1.422620989555521
0.479868981091594 0.119438874672099 1.403007092614581
-0.011306550162066 0.018817767380481 1.507662308795087
-0.343221759138730 0.141850817700625 1.460626251078208
-0.184686326990659 -0.071367260558084 1.504992452746864
0.343281400594888 0.320459057686194 1.250573996248998
0.683925492712513 0.187956721308910 1.216469340033301
0.327117676640221 0.223343737460098 1.377706173254315
-0.333658572013916 -0.171858255970163 1.462961306428501
0.349041806372311 0.267859979259173 1.324077462357465
-0.509522538317723 -0.081395459862612 1.385986557776834
-0.657993225628736 0.221980131846754 1.183553296612437
0.260459513591987 -0.061643228848849 1.479660545205906
-0.095844542736174 -0.026265646116439 1.523812338324013
0.592185000476894 -0.374841316253777 1.130090350587749
0.086445709397950 0.001556750826089 1.483861077881920
-0.258716034133123 -0.038628231121218 1.487245772749729
0.344844787597690 -0.119303472486587 1.412164912722863
0.451372517287248 0.027573586299260 1.331616520382608
0.650748810410287 -0.060226551546504 1.106138911033098
0.304939547757819 -0.066937308079339 1.344589018613356
-0.157677677585292 -0.014076298771478 1.452117573636680
0.081039367531291 -0.093251927577016 1.496445463094314
0.324287909861713 -0.003493358329144 1.479818096941937
0.753172895550837 0.233690628647969 1.149296750953524
0.001079210168644 0.121970860122731 1.442918908821881
-0.098751650967454 -0.012086878491633 1.506813093993719
-0.549252069365673 -0.230490393864134 1.322965728207642
0.428095604564614 0.242426080847115 1.346290365050180
-0.460323340493110 0.005666813802803 1.426597563138928
0.424895996559877 -0.045823009755676 1.329607459638833
0.533811955095056 -0.253239578546596 1.239859134198294
0.229519992268279 0.368701684513573 1.352918639196654
-0.112294742834140 0.045398937565141 1.496864201780297
0.191335928848802 0.092145256305715 1.503244155479413
0.374595374200944 0.036284464118324 1.460253994562554
0.537143489357048 -0.137792585771063 1.358612371481091
0.284271488361841 0.148979313816391 1.373999072635750
-0.464208674165219 0.142752452895553 1.414637196368938
0.488221830860384 0.088265303131396 1.410116335937174
-0.465833038345320 -0.227041774084153 1.361702386082521
-0.008564057036409 0.057374899452444 1.515309651364308
0.287575456770515 -0.080234914744408 1.478528971888505
-0.439416275836371 -0.029118105831613 1.434686287685072
-0.472134270018670 -0.134078016024046 1.394881238354593
0.169671824056629 0.093372943262657 1.485044299518581
0.149092874673868 -0.102552740635618 1.474464774624301
-0.182166180291230 0.160358861041066 1.472682256968137
0.407994891688501 0.410142186463153 1.288612062786668
0.092348847110690 -0.080484607004742 1.505566696293621
0.566196927538503 -0.193408416829637 1.219728265925051
0.836997242449198 -0.186572765277812 0.991418343884625
0.069863295368657 0.010193849385479 1.512185117276209
-0.180240006497074 0.070248975034100 1.500704107881322
0.088807956716972 -0.040631198832758 1.517385475573533
-0.101613491493017 0.046318930679218 1.502594853406146
0.609918282401183 0.035914629224914 1.180936660550714
0.613487296834359 -0.389543763535201 1.078522931827399
0.698014876091443 -0.101865818533956 1.212963261331069
0.018532281976456 -0.026191774643753 1.443116193676311
0.147983861014123 0.045068507836643 1.499118600161164
0.641152708490585 -0.046898535935652 1.224694187305486
0.428041394757373 0.169523345832712 1.270570287308791
-0.398794110417224 -0.222865048879469 1.427396695313192
0.539175375947370 -0.029893930195534 1.389192275837951
-0.203759727640560 0.038083469799014 1.495126225781050
-0.176642182234016 -0.065053615930125 1.472228739437898
-0.144686019086093 0.073980684098284 1.516938822966063
-0.004424195241157 -0.014803113294902 1.451936953296350
-0.583816528471153 -0.066100917883297 1.339844100813267
-0.164764338808051 0.045799322764973 1.503941309153631
-0.066574906846301 -0.010686228121742 1.521342565402809
0.405534660084610 -0.055146541274444 1.386578056338577
0.753206070009269 -0.198827948468885 1.119408431558418
0.517238361926319 -0.142283315060167 1.391284817196473
-0.408968450238858 0.049202172908203 1.421592991116785
-0.550803639951396 0.048684503008674 1.377305427368784
0.400930278103377 -0.013619643929883 1.449696850395608
-0.310063573416478 -0.105890423447403 1.459842077880668
-0.148452719959896 -0.029710081930987 1.481982993933446
0.140486657922710 -0.025076411379595 1.516080133814081
0.733840881851183 0.147473956788398 1.134557795944560
-0.590231144271838 -0.053305700865448 1.309481540045620
-0.025093859353085 0.034926981398753 1.523668940312184
0.066205523345201 -0.009977425599371 1.509290073811306
0.016849812310997 -0.070370787500402 1.509941627579475
-0.456389646485853 0.137239213205723 1.415008478167544
0.011827544505016 -0.008650929539428 1.503234114409064
0.144195905780573 -0.090541896050055 1.408626100353376
-0.084522345484024 -0.022802363904722 1.509061182517174
0.367818935158968 0.418673556520258 1.157020137271382
0.305200186082403 0.020935709433440 1.473236482675321
0.352148722923318 0.062884265332631 1.470905102931374
0.390805027121076 -0.280340425547204 1.328824768990062
0.222561311626458 -0.000744261669129 1.422404286952440
0.821578846127703 0.231530837813272 0.949601082909225
0.649719828639944 -0.235203257668159 1.205417351335579
-0.059465554359583 -0.158402079289188 1.483715547843857
0.710846819424376 -0.280222783457521 1.198890497801238
-0.252581018438490 0.143122917390632 1.465033309465664
0.376832631932836 0.163730156871141 1.451363223576429
0.125782656493116 0.176084612214203 1.436192930385537
0.070679680789073 0.103483123322337 1.492630596208882
0.512909652883507 -0.131530545986772 1.279904427246235
0.174838800948703 0.063780860358480 1.364231772961972
-0.267968459326902 0.036688205251533 1.492305762402959
0.378140826570958 -0.095243952517212 1.455521245580427
0.664564993295396 -0.119684035489884 1.035828338184743
0.393885186333421 0.287690774964534 1.406406179287779
0.495368567160538 -0.235129786805499 1.289751984746074
-0.540446216622707 0.198740077181327 1.333106594355880
0.823711219925574 0.095367855195057 1.029896345887185
-0.379466863659282 -0.207180896913955 1.408002436546022
0.095830820256244 0.182810605291594 1.440479451390647
0.476314182413224 0.029520930889007 1.398475584326475
-0.461034907014236 -0.139515902603041 1.404943302244269
0.375573936409048 -0.026501576638283 1.452782830148224
0.108673213300859 0.019106925164657 1.519467653709367
0.557572381231288 0.203351682313707 1.349002556351667
0.323625479040555 -0.020070422592771 1.452869135007775
0.567340086237541 -0.083619153531822 1.257283503487634
-0.219992695484474 -0.184145107360503 1.483700090185151
0.042072475506513 0.047782459684330 1.486829100306205
0.304882660003061 -0.078678643041662 1.473756872103202
-0.308507151649035 -0.233045430115494 1.410269459861997
0.284671822268901 0.154324716555929 1.472208271471032
-0.574143026653697 0.039156642950330 1.345423043046338
0.743991182516668 -0.041072062900210 1.062023341578595
-0.659958089101260 -0.049278087199315 1.273531057824744
0.179056739079489 0.082612806337223 1.504433143383792
-0.039286306402899 0.004869260199489 1.518340829096567
0.357085685545032 0.043697098051642 1.464998997360039
-0.415355102897517 0.100462112559163 1.438790147167162
-0.060174190217241 -0.069962071304132 1.498903193634418
-0.355382721344706 0.212884192148929 1.402951798637021
0.348555160276227 0.001046864226856 1.471232502352799
0.181603489046803 -0.058058255490233 1.479684371251937
-0.063557128020018 0.043444458551586 1.499932897719888
-0.044876750427983 -0.054949324632857 1.517911374244387
-0.301066631473318 0.084082577101926 1.466624547817058
0.818871783031694 0.205482179251490 1.007402472981377
-0.441741459371271 0.287696449126544 1.367953774882969
0.459029543911454 0.119690172464958 1.389124926636331
-0.365204365680276 -0.113291053507403 1.453118547955551
0.753862947714251 -0.186839563454684 1.066388804935518
0.376013368857185 -0.265319673900679 1.288899267229196
0.087908376141569 -0.035380717617174 1.513567750994545
0.873309842534372 -0.087545169054795 0.797957650966270
0.047397721900852 -0.023409334986239 1.504925022904931
0.221516330216245 -0.032130078681423 1.501703603299854
0.366315690722931 -0.086782260183736 1.402092044963720
-0.458892366482505 -0.007929102904606 1.423011971330949
-0.049733129902696 -0.124779306023877 1.465602722703742
-0.025317308281835 -0.041434211204714 1.520089034700971
0.529449221895502 0.083977631976521 1.345710493535554
0.672297451292845 0.133881118976922 1.233753857303102
-0.199417167086711 0.126147503440920 1.481458356867103
0.637499420448921 -0.408041846529640 1.130065775694546
0.477663653325200 0.004447483833269 1.379302045033633
0.007192599561767 0.116508316921610 1.498821559436645
-0.064180657281313 -0.093360752560305 1.500936825252753
0.572439424567279 0.179318878036699 1.324792568663293
-0.516571660197619 0.062014369613520 1.370280372942204
-0.287873365086132 0.204181389894575 1.446168823083867
0.682165819244616 -0.513438150023514 0.945369474999274
-0.363486953814136 0.169761374304848 1.446407081027451
0.606349123613004 0.198672684715032 1.266610381994083
-0.391051680520744 -0.076788962445647 1.436054652205599
-0.312523044576243 -0.090286019506402 1.472984009290145
0.575058693773610 -0.168879376228659 1.331708782684747
0.168743039386086 0.042016721131461 1.436815862020132
0.567022542773718 0.259493595873917 1.167224656200622
0.369119227887847 0.139812539568111 1.453599764907124
0.328287271932095 0.249584150060725 1.437668093817318
0.091957497593078 -0.016400432869988 1.506777220923444
0.132276498802360 0.046041217162294 1.515397632321197
0.192955143494703 -0.007239747197952 1.498479424735278
-0.122717083880215 -0.016854533220239 1.477861708261562
-0.496725763849813 0.078592037767116 1.379662878888388
0.674029732867113 0.067368779633107 1.220851082872985
0.736661629104602 0.282384821749095 1.062215648319897
-0.466018832900343 0.080952745005758 1.345911033537408
0.864460239530203 0.195346489231107 0.812653589235017
0.043635155204226 0.009506517273221 1.526700507410696
-0.465292090343405 -0.009650059440016 1.420641193253395
-0.332013103480168 -0.135219433999854 1.467513053651462
-0.143227127773123 0.000201227376916 1.492257861584724
0.734786922050407 -0.446899400396460 0.866035364630187
0.086726283042225 -0.031540375583541 1.518949230653563
-0.245139489013250 0.163916024267354 1.470716616828706
0.107280461115850 -0.002127773681648 1.517859836544739
-0.126447403627141 0.076425289829747 1.493193051854586
-0.206288949389668 -0.180802869440957 1.436846952621188
0.193736549811325 -0.086986540532319 1.432340106861258
-0.120047360888546 0.027329744429855 1.511069259212001
0.509776235083378 -0.154116992680999 1.376090064935481
0.250135864813341 0.180523848415906 1.431203829648931
0.872093796181231 -0.149443708087642 0.848770823512839
-0.629847396535014 -0.038111498266395 1.330413723450425
-0.569497674962744 0.014385024165656 1.351940993414036
-0.153180617445434 -0.048494973207197 1.502394877846427
0.261100753522847 -0.013057540424241 1.470642071488221
0.566541294651221 0.332682901528343 1.184940866773717
0.159950943874461 -0.031573539574706 1.511069193808106
-0.106840969688350 -0.145894588169475 1.473692235364460
0.392929506350118 -0.169215449635560 1.243213868546945
0.011567728666851 -0.126679045168751 1.464142586364453
0.522346000248536 0.348288951360491 1.290765905291812
0.801231484464069 -0.110570673312290 1.121285885338947
0.642592312065549 -0.069970134260906 1.255208303871923
-0.677048027710331 0.002344866249533 1.270865794518400
0.258882393143166 -0.162576625523079 1.477116772784186
0.202675091109037 -0.080448477150578 1.399339303664864
0.034736445045475 0.028280379205519 1.525242487801054
0.014095729051506 -0.055280738522181 1.508545824665207
-0.347002316229817 0.150960529931660 1.450617561709745
-0.367493699411674 -0.061492580695154 1.431392593625319
0.521819750396334 0.249858712872748 1.233837480405317
0.669373197874726 0.128646029434498 1.252999893515816
0.573536651488965 -0.008457559971831 1.367263413521568
-0.225065577847666 0.112259059304615 1.450438573320543
-0.057248704725557 -0.218462891499717 1.419893342015415
0.451307186444379 0.269993348052293 1.364524341433845
-0.288763371002949 0.056282509066157 1.486782929163555
-0.162572699739373 0.079175418273819 1.455348882143523
-0.544066856044896 -0.048532053025352 1.379667955052186
0.211001579903396 -0.149348195210368 1.443583210522872
0.621468730087328 -0.238241434557773 1.179242490177180
0.030534373485326 -0.278707315126385 1.360721440595453
0.458516411547465 -0.025665366993603 1.420193141416905
-0.177846573838208 0.081186057314662 1.504129761487432
0.584388385951274 -0.003742210806254 1.351982211743659
0.406571777175422 0.009180456133001 1.435741422942941
0.711629676863168 -0.049919850606366 1.196703478991835
0.449463659293044 -0.249824035238565 1.342233759982435
0.399974814945635 -0.260181039866025 1.397366563186513
-0.037618408645745 -0.128642421867934 1.486453377276159
-0.228634064558863 -0.043354708143943 1.489832614680809
-0.223652791333892 -0.015667898732548 1.501712400334781
0.400758549125310 0.079041880044416 1.338090158888012
-0.433588065000520 -0.241757794398533 1.410284653173463
0.712203132381172 0.013845514975375 1.109660417292927
0.623963761664891 -0.445091417552071 1.045827812185900
-0.339317492827076 -0.177548566614316 1.442474595872884
0.210356329420410 0.173780968715834 1.479549705629119
-0.053675726599401 0.126067535556145 1.462036030216463
0.638622147248746 -0.017698758920333 1.142140595555293
0.149333399794361 0.147045421924884 1.412152994717435
0.311734122169529 -0.096666948888772 1.468401601541794
0.253545944477296 -0.200746161510437 1.322960926903720
0.492025311803767 0.120440761729937 1.214202451075933
-0.291050395361546 -0.059708513018143 1.486476310540084
0.659843446271079 -0.268126978314937 1.220297066598690
0.480225987453514 0.066066518067804 1.375649950444537
0.712578993888272 0.238918899594522 1.116627176242942
0.622846387033792 0.482391762401495 0.896616736443331
-0.489756152905553 0.082006863726134 1.413933012999608
0.487681563155730 0.028815647220040 1.401471228081570
0.183103741045360 -0.064997711353288 1.467326740597236
-0.390269366203330 0.012904744521063 1.431305547465480
0.574457261086752 -0.064662459829443 1.215166544699684
-0.413617372636568 0.051586673975324 1.424692425099403
0.504927749851162 -0.263486198952606 1.362108445130320
0.046243181175104 0.032333774831176 1.518598857629714
-0.216532926643494 0.032780208166846 1.477071686519335
0.258738477407250 0.212368855943585 1.358208637873096
0.662081593664726 -0.173433939701122 1.288447187762552
-0.359694721028748 -0.053297395271454 1.468369158466325
0.214097497391346 -0.084827799368515 1.479899433170467
-0.029681148411329 -0.015248839392068 1.527472963254086
0.563632300822694 -0.022521514776768 1.247082489296665
-0.352399110113818 -0.137322262151815 1.388210603827801
-0.688183010426627 0.076904293951044 1.235274170459489
0.359078236324209 0.246233692630829 1.404745405349927
0.631274050698254 -0.071029956604693 1.296815150798732
-0.324315518719654 0.088548908472070 1.442793327767560
0.383026337081540 0.027802757148982 1.450723154149515
0.725069979034598 0.322117425173123 1.111155691874266
-0.014486328719208 -0.059402213657031 1.512668568621976
-0.268264908209147 -0.126014414761086 1.488893392635035
-0.103402451148394 0.052111066381302 1.492012534489358
0.537996347350757 0.303181532679096 1.269594213565762
0.535840585447140 0.021801764204249 1.388490647408646
-0.392049493837256 -0.080540128861852 1.433535801197808
0.245315269152838 -0.107136025857670 1.488373470741275
0.298844962929841 -0.088169109167165 1.468456198137855
0.016254124165441 -0.098169697968079 1.489688679863600
0.017363160215757 0.032305995455431 1.502441769744394
0.409731097266295 -0.092313477959501 1.426748599614521
0.444967862852266 -0.064892636941435 1.303996847300435
-0.109188600675977 0.000808171010904 1.510979486679448
0.018741256943446 0.080138463073838 1.490985480006500
0.216459400306278 0.080576920099379 1.378765448869200
0.042203158197827 -0.047918499129095 1.506022079150614
-0.593757855248259 0.281615149699765 1.304759406854722
0.084324151253555 0.089699695522613 1.475273026063884
0.325749794914844 -0.173261862267705 1.454845399955379
0.447793005226242 -0.115834996587086 1.376340861208563
0.420310041239819 -0.178059685574450 1.276234541383343
0.202002455575563 -0.063934439474025 1.445613885845671
0.441787125392276 -0.079542536078880 1.417686606571408
0.360128066919884 0.030102501661787 1.374374935581929
0.593077479895836 -0.275973180466938 1.199003525341799
0.586915440477719 0.120412930689237 1.317635664711336
-0.355254566895910 -0.050202014879902 1.454442715371471
-0.246056401941478 -0.066418491815043 1.483690672188706
0.276835155729855 0.295933860687549 1.395026155020219
0.291913380410731 -0.074919332331427 1.459512107506467
0.738796447931723 -0.054317462363495 1.200080776425900
0.576478171705880 0.109586828606931 1.345083119548018
0.013124282637280 0.088128494082264 1.493568893037897
0.357267601995097 0.030926036059625 1.464755892373687
0.091825969196727 -0.040536517416705 1.515319545948997
-0.232191963959552 0.112083723424267 1.496125937817394
0.188186451104106 -0.068546166209598 1.457926093787679
0.231715433363997 0.065016704768609 1.442684530511785
-0.479476111737336 -0.260449705639722 1.379262736183681
0.524330296415451 -0.485100562464721 1.172152197852507
0.011168470143871 0.080554887373918 1.445412417950677
0.727452571635242 0.114298059052362 0.985769536205025
0.087123599419547 0.022115215452666 1.521557550891087
-0.382096329928481 0.101638712773451 1.443703184061585
0.034799315278089 -0.070700591681011 1.488131150517013
-0.011705882275897 -0.065864574383414 1.484026026661559
-0.152473691007958 -0.040990701117324 1.510452676675205
-0.229334761805703 0.108981588963364 1.489464367420625
-0.457987247609914 0.139903652131436 1.414247496564386
-0.459799746604672 -0.229652637888745 1.401861598657615
-0.619974932889557 0.172171876726069 1.317397353928925
-0.189298461161257 0.108001945902629 1.475686047654539
