# This PCD file was generated using the MATLAB® pcwrite function
# from Computer Vision Toolbox®.
# .PCD v.7 - Point Cloud Data file format
VERSION .7
FIELDS x y z
SIZE 8 8 8
TYPE F F F
COUNT 1 1 1
WIDTH 859
HEIGHT 1
VIEWPOINT 0 0 0 1 0 0 0
POINTS 859
DATA ascii
-1.029330554750133 -0.792126970436846 -0.019836196256713
-0.891870814999538 0.297028441060664 0.897789216085956
-0.604339152631177 0.677464921471343 0.905974741119928
-0.870308731762551 0.177414576619171 0.762015674088873
-0.511205967604795 -0.611864546408824 0.903150713449463
-0.877547361817223 -0.370387072146481 0.934456572862099
0.135133885104269 0.249604440826391 1.028068275794438
0.017444282130649 -0.019508072768959 1.074233607169595
-0.232650975522906 0.342151620891758 1.290348783315301
-0.480319603561019 0.453701416678602 0.584981160965249
-0.166579292441257 0.080626753920064 1.415685210576110
-0.409133446082640 0.482457522201614 0.429657266204237
-0.421765337946417 -0.526972699014879 0.498612169439321
-0.202928445188549 -0.192882759463999 1.131343494816356
-0.865975459307322 -0.191976188554085 0.890295571410587
-0.809092507514755 0.157838185456307 1.090117183720608
-1.046342606123178 0.669408539690367 0.518062718526113
-0.280325651557988 -0.154334548663830 1.181862922464822
-0.826857228566528 0.614948885835115 -0.117143590639846
-0.554762270348511 0.606576932159439 0.659264410350023
-0.378930656032796 -0.084039400651131 0.656366442167336
-0.473450742350699 -0.668842413932090 0.537339426392433
-0.925164817554629 0.077232178557071 0.061574305978726
-0.460411126863326 0.434198495193303 0.075055943434297
-1.060689832926403 0.892955171859700 0.195876661968224
-1.188523475566762 0.666996559858853 0.519958781333108
-0.883356966290794 0.184342089745586 1.124986988218006
-0.729715882953028 0.059722289688843 1.391156542188045
-0.371515941759279 0.432855117560389 1.051533317023339
0.168999007937132 -0.642253006479014 0.983423791750063
-0.450131378710789 -0.568730370173169 1.208115797762672
-1.270419603493885 -0.174236789169158 0.831889356303423
0.049112964617220 -0.392190758802109 1.100080015829807
-0.429383899272916 0.017069525349141 1.069327345604602
-0.148617044216892 -0.360392301884358 1.212618485298582
-0.889704460677624 0.891931126362475 0.023372745078546
-0.242975876661613 -1.005365693006108 0.127366167585830
-0.373082206397151 0.721936124075105 0.323613396814735
-0.178141127062678 0.328467768525430 1.396871349201579
0.344900416830129 0.183522090203978 1.094935039405133
-0.962981878564166 -0.075975997415586 0.898132351831658
-1.204890503806410 -0.099310645520935 1.021885886612477
-0.164096208549494 0.264652119533373 1.370171102666726
-0.953691868284100 0.126784305248710 0.954853093147782
-1.110223944324184 0.746863176154587 0.714163424676965
-1.111890383544435 0.301723614799358 0.299559702381157
-0.633287157962163 -0.184226666301811 0.602432182897046
-0.616415531983309 0.355842163711075 0.583171546120685
-1.053359045359821 -0.181237470642939 1.002133309332921
-0.530760443281154 0.084579447707197 1.301415379828062
-0.673764977005252 0.515873774167606 1.127389247278809
-1.071977881434084 0.383348895558401 0.279811996111090
-0.453643526308540 0.535430675915125 -0.047588097562137
-0.314437623911310 0.151974397853273 1.032572337884190
-0.997579033628775 0.201677700677432 0.763164473771516
-0.390608374798049 0.017259360249563 1.045029123567617
-0.456257146906952 0.009101140388690 1.338212788872812
-0.722296732789069 0.262694354665047 1.214286785071011
-1.096387773637867 0.154619623568075 0.613419044599538
-1.131227487002142 -0.768200273505176 0.381615625395438
-0.528090595039356 0.129622572520506 1.519460343455506
-0.509820670606831 0.824551407205555 0.620803898120795
-0.098378841713865 -0.062330458867155 1.117304741750012
-0.110476704742283 0.831109332253767 0.620591182177889
-0.550462042175954 -0.664076613685508 0.291863933163043
-0.374469752494637 0.342129753153030 1.062508089798756
-0.696087124235538 -0.553904632686331 0.345014811362345
-0.861471994281042 0.235100445740912 1.150488844169324
-0.325689218026715 0.177421875025568 1.159608523345202
0.030089156872663 0.611860880045759 1.087586049632110
-0.153317582600856 0.584295116314019 1.078695660811112
-0.854433360367051 0.497612763421094 0.874007479442560
-0.938367804609572 0.682372089772353 0.798826655108352
-0.885285071295749 -0.548912302166988 0.664990712284113
-0.637063366821130 0.053072880672742 -0.402430749045402
-0.146888718470392 -0.280196268588771 1.068613367643754
-0.730672549747078 -0.071550911008325 0.975291227830389
0.179372517770730 0.017554151860385 1.281559596903747
-0.567166673858267 -0.694271636891272 0.762924635839852
-0.375222610805425 -0.344908750715180 1.462872154680305
-0.627806151913192 -0.436121481149653 1.210231403008074
0.120859132212224 0.028419188927265 1.079235108733419
-0.339727766897820 -0.730430448118466 0.150017177702580
-0.780422415773909 -0.414253308150096 0.008498924070391
-0.466391417908283 -0.270211454018880 1.416216116746629
-0.823390005986146 0.661910451676746 0.720098216962033
-0.460390990916670 0.063058132261894 1.283841443470077
-0.842033419927246 0.563779083172483 0.924114355075842
-0.690917604588933 0.274285744954466 0.787215954943110
-0.640794106725012 -0.889380826533899 0.497754914302536
-0.648404118513975 0.945471560591630 0.204327954441205
-0.688763050111018 -0.120876335758075 1.149405047164431
-1.123047102372507 0.385975816806627 1.202111229871867
-0.593545630241942 0.840062032057906 0.757707414661607
-0.576537548153087 -0.906475704899907 1.063339541498639
-1.143715002143842 0.497908698428952 0.911105708571586
-0.424777029514501 -0.899549106735222 1.069465660616093
-1.186051841781844 0.290018598633359 0.394552433402791
-0.734410272541367 -0.311562428113030 1.055345232628691
-0.436312606545493 -0.064878282892296 1.497925879519119
-0.442361736816215 -0.705559986274468 0.943168335483447
-0.192639573645324 -0.290033740113774 1.170616532363031
-0.739912569137460 -0.241039696779308 0.837392696741619
-0.606097851173493 -0.444756625663063 1.108307079826541
-0.590195335814659 0.361167151255173 1.440726915930383
-1.157222631814768 -0.537340932980158 0.581527519755426
0.035372866801400 -0.248435599697844 0.941283701616977
-0.988886439280616 -0.138483867905936 0.722249821224746
-0.439246277516965 0.137058409276433 0.186052716210139
-0.132084597147865 0.263719160836464 1.219525562926681
-0.858767277050109 0.518853723523832 1.009568812799076
-0.269570855646426 -0.346128370444663 1.264587207081889
-0.976802682227042 0.372623576238896 0.818503016820465
-0.558184693254572 0.602526131494919 0.839450072010632
-0.185885201932230 -0.151126343523806 1.280668630647594
-0.436655569217914 0.890997579315762 0.286670128814498
-0.746677885235332 -0.273784348868430 0.847294855370912
-0.528486542188159 -0.890394916687281 0.294832809137446
-0.254591060202678 0.481478374285729 1.171433664758068
-0.165481326681182 -0.723718591690386 0.962318505091192
-0.712394868712610 0.652591301201816 0.723714382369396
-0.930802631098815 -0.640398397379276 0.693492648587438
-0.094990763608315 -0.415426579376959 1.367075150662389
-0.383224473725073 0.916211477248390 0.842095886180336
0.233514424994308 -0.359494777155763 0.973499245450967
-0.368784783026970 0.519393472000148 0.246312704125064
-0.991536266392476 -0.589945637930211 0.137660795734437
-0.383541236986504 -0.054623546960701 1.518128658624939
-0.229618332174903 -0.084827254493582 1.271368755847735
-0.356387394457183 -0.732398966730680 0.876169617006473
-0.343470092859142 0.719223511757764 0.797348593829043
-0.360886825589507 -0.837188358399569 0.678301709252287
-0.992275668070675 -0.825255182404928 0.460012087085072
-0.499720449936011 0.876163400020609 0.156791180120245
-0.082352951287711 -0.068562278836341 1.128582662098462
-0.453454904759697 0.017689052264366 1.299568363797652
-0.481848732752041 -0.381388672301518 0.943971246200478
-1.167847504995106 0.532168805314069 0.358503792696937
-0.897712432006627 0.027893338287554 1.222918783854730
-0.603380092997448 -0.603632680351040 1.108417325548053
-0.944637779354009 -0.729091226626290 0.461301119752142
-0.986509955488319 -0.663939713411829 0.301727708643575
-0.781080497878754 0.622609079989224 0.927933868410477
-0.696692076844384 0.361379686410714 0.315446072753270
-0.815368987544601 -0.249458042280344 1.377256360987335
-0.581158007588596 -0.953116688459695 0.001476977992127
-1.187370054663557 -0.444007000044346 0.909249341474757
-0.345264051800051 0.076290233215606 1.511539125644585
-0.688820619947468 0.308267314958681 1.142256687105651
-1.026867537182634 0.222945400307086 0.449453037070612
-0.547813613054849 0.671903363169663 0.039644210018989
-0.660807104652596 -0.055020335055859 1.234009542329440
-0.332340457510871 0.321858718372436 1.049039969202878
-1.151064276245918 -0.078906918411689 0.117292444907743
-0.398205427344941 0.280513342027619 0.752756320356083
-0.507893498679105 -0.214731801710784 1.454760991420952
-1.318972644533922 -0.241038821328055 0.575373400239628
-0.158784491100767 -0.039165594411132 1.020944915094428
-0.993463601270513 -0.075386551903025 0.608445456882632
-0.228671557893124 -0.245784033947015 1.304784218881173
-0.882012758985851 0.155540117559665 1.244489251786552
-0.973416307809446 -0.840356992608947 -0.169522538954095
-1.196388638002064 0.011440442965108 1.229269311829566
-0.774022850742972 -0.687739280949456 0.521150996750372
-0.546991843841251 0.424493007363482 1.147132339604162
-1.328212409434848 -0.583912805209494 0.020076946124252
-0.542182006003169 0.444992058639847 0.932127952469561
-0.628263463633758 -0.259274247371539 0.238946426790146
-0.980169553550525 -0.742233958024551 0.515222896804563
-0.291812450576773 0.285156921125508 1.009461140303237
-0.762340598383545 0.797703330868223 -0.142992358191738
-0.060639433092329 0.334346917267839 0.995758583800272
-1.001877879523177 0.414901287051064 0.602755184427796
-1.073607116089758 0.066173232288756 0.518490339864990
-0.572627540017204 -0.745877962542092 0.857225429229407
-0.655418561584033 -0.622164061270209 0.929414114712036
-0.356804192442382 0.928586936932032 0.588075956265772
-0.218686507068761 -0.281156426555446 1.177794126742173
-0.127181580838575 -0.126611943013628 0.981530329985041
-0.149566195361358 -1.038356265319619 0.300966920122350
-1.540142697234175 0.295850624179921 0.121706571531346
-1.375289571355455 -0.073208590354303 -0.105142914460802
-0.505724629125128 -0.446506377062606 1.071642839312252
-1.170262786431951 -0.032979448837404 0.738723207456040
-0.560335738756927 -0.670131975286971 0.445827475911046
-0.858984855977153 0.454817216535768 0.489623366851123
-0.683161851098636 -0.222257558150173 1.123939879202543
-0.982174260421492 -0.800358053394036 1.010799497695654
-0.617589599599267 0.765866730999564 0.308363140012958
-0.839230874473538 -0.118173347136448 0.544930854151517
-1.061328495594906 0.504602723268631 0.830156789496014
-0.466410016537583 -0.125359648083124 1.485775379581307
-1.028787043390973 -0.082076660007568 -0.030040959921671
-0.935284338557484 0.714931931950402 0.912648192381718
-1.021988796787739 -0.221966650755512 -0.252708405111997
-0.931992362032203 -0.026098940368965 0.689153620658116
-0.610168472516966 0.549275969613198 0.378891805873234
-0.093013083391348 0.421303307325295 0.983425155269015
-1.277414466158709 -0.291758915191840 0.731391107517946
-0.584012448948264 -0.250943390635187 1.080517525807028
-0.325404588065098 0.062814026737514 1.315541161524225
-0.020349286331640 0.886444928348260 0.295734178134218
-0.936615022153841 0.457207152291723 0.465908241623851
-1.093398608409050 -0.363890874116285 0.655097370343524
-0.341686382999255 0.205532769263938 1.348076562834885
-0.953454655958130 0.551802652841484 1.185207118249819
-0.836946844797477 0.315027877618759 1.411831368392626
-1.456323280794984 -0.169346593569398 0.472463258741516
-0.191032591873716 0.434297560986768 1.077565961142217
-0.456494947335392 0.487111939508815 1.369427447912657
-0.690717437067833 -0.182627305795383 1.324836460341664
-0.944278602084196 0.211310783092106 0.950123988821950
-0.695626808865648 -0.600405462893030 0.279897211124803
-0.701393128191577 0.664251365561689 0.048971451563536
-0.905733675900485 0.716101382677300 0.655994024121072
-0.975383011859746 0.000302256465407 -0.020508471750572
-0.266168562445037 -0.004263185213102 1.330945037606782
-0.804201561595340 0.305956965910759 0.463019840180905
-0.908515520707924 -0.150055133714278 0.902385300227833
-0.464252004737073 -0.027097608636430 0.987793670201786
-1.018172675156205 -0.477734097701036 0.460952483668781
-0.872001964356407 0.713189206460438 0.462540391497863
-0.920307658266427 0.188729434411956 1.088139579204987
-0.179744976961101 0.015557483647154 1.263209259946118
-0.524256547430800 -0.022339602014106 1.364873803234917
-0.653606779683420 0.430618432502572 -0.126997539619192
-0.750759954182988 -0.003534330227396 1.329322185119656
-1.146722302170467 0.085107966112795 0.355967339815054
-1.111717816729156 0.474766749620215 0.594843995514682
-0.684843414208269 -0.196200713195488 -0.246163302651639
-0.693833660687717 0.017819337530220 1.353754748400387
-1.239200691440265 -0.076983009886788 0.875546009622910
-0.706047263400817 0.149828094600554 1.157969576588230
-0.470948381594261 0.385950704197587 0.891801379729382
0.310114699420206 -0.375642113830850 1.059043398219378
-0.397097364243840 0.182838649089797 0.880471052935611
-0.721052017300874 -0.919394582727592 0.573158045718673
-1.220156436605056 -0.602496611423278 0.038315692776241
-0.566321481236919 0.867686884153429 0.355250523428760
-0.363251262605781 -0.299772605491541 1.183889384243543
-0.531930874192239 0.725554290527075 0.872123928158625
-0.004012138339460 0.287500689031263 1.280173833173999
-0.521951254590228 0.566173052131225 1.026847624035506
-1.157382243737680 -0.015413693587498 0.232634399574628
-1.242381980198310 -0.809156581732139 0.568653031129452
0.136633028752626 -0.415079932793186 0.984948532900709
-0.726730805688281 0.539862728938019 0.878933350796528
-0.109720773543210 -0.794642510734300 1.050135585838937
-0.469701786876188 0.767461118126712 0.282151479090708
-0.292918624491081 -0.016695330545165 1.169565941843883
-1.275686192631407 0.408715968066052 1.002559118081653
-0.063011631076894 -0.364125574233066 1.182295485604435
-0.770959132330773 0.664308195387254 1.141530420664546
-1.370963067518316 0.320865768171015 0.447363806194433
-0.649462554634532 -0.478274239164338 0.004289097093508
-0.847396089865915 0.483591865881707 0.832593103662275
-0.337970202446187 -0.408553104745998 1.297098821481548
-0.914396664094569 -0.424478230453510 0.131964302787859
-0.937241998411447 0.362996980836417 1.083645273485108
-0.140240861054644 -0.134484603995417 1.141609540247722
-0.575583273729886 0.398002743189945 1.013994959435775
-0.974327326503446 0.155693301496485 1.154956485736179
-0.479258489267390 0.258735145825843 -0.015397353198146
-0.327255340527808 -0.738627068831369 0.415854861895695
-0.448385551858320 -0.184586599307341 -0.302923274079385
-0.700263411685785 0.430581427490323 1.347690096734171
-1.327145175546930 0.037183794759036 1.097729777357289
-0.809643672527974 -0.318871804073896 0.677182724249476
-1.386017753949047 -0.369353453356115 0.897915034428474
-0.312202273493100 0.484498542989750 1.072215318941872
-0.912738296969769 0.304687933478571 0.766757411530163
0.093688799397590 0.015849980953192 1.331451874119191
-0.503123086174287 0.849154626829994 0.048923798753475
-1.086736836144483 0.022372269789809 0.098739167154480
-1.301766127546872 0.269410006621907 0.424190632841293
-0.336229753358433 0.417596875572611 0.913378054216715
-0.373363233265728 0.652297256082966 0.341882676719554
-0.465331325034386 0.864063542542844 0.682779933089570
-0.902334647225155 -0.307559421814587 0.951364168104779
-0.445117967922697 -1.116272340046490 0.297739676152622
0.025725317138142 0.581866656925424 1.198143698121514
-0.738317070675909 0.782393109952020 0.429731517197140
-1.288931509559494 -0.765509273604792 0.342400241149751
-0.664526813054668 -0.469837972507828 0.979949442044264
-0.747242085040037 0.271515688671635 1.104656379352581
-0.543896663832705 -0.248039312520552 1.448797041559394
-0.319932858029473 -0.474433644516211 0.705103526020072
-0.507499204341841 -0.845115157873008 1.008893018439603
-0.946830252633009 0.395837684886834 1.022297763594880
-0.695077742284119 -0.473454718331903 0.964988762771908
-0.319658944161228 -0.799302952737419 0.526317331240660
-0.668387512156042 -0.211444223282484 1.064270886102386
-0.894454945116887 -0.231044554386448 1.364046006725716
-1.453462142579725 -0.274195443132349 0.603623351577134
-0.759721611338383 0.501454815216359 0.823922071931009
-0.904253463366064 -0.776545281194894 1.023520853940889
-0.505656427302886 -0.033219960031746 1.485723780550571
-0.067794971271711 -0.386140843041192 1.165757996236058
-0.275277992187752 0.282794119332625 0.964036015744260
-0.490065646950669 -0.764656880906414 0.559481065625628
-0.269908339528377 0.021392762379514 1.194392360695438
-1.006413719782973 0.116429231154115 0.088699120784939
-1.200164503011678 0.032901141660408 0.316333944312495
-0.317073980418775 0.711260828468911 0.552547287012605
-0.930302557935924 0.051119954205047 1.320040338302070
-1.209522697492458 -0.138522176831586 0.755978278082477
-1.070896033311539 0.168619827882566 1.034492162145780
-0.722614309424758 1.010572012276495 0.086097236924871
-0.262797381508947 0.205352950778270 1.243061612366419
-1.277143414417263 -0.121950145454365 1.131409450839575
-0.455508251078575 -0.592324528520517 1.205309202075900
-1.118882318079808 -0.282142129605917 0.845966154390953
-1.425735872311687 -0.096122913092769 0.826295999587637
-0.389140101574992 1.019612943566399 0.622351296982053
-0.843345320293707 0.991438446019359 0.644532423109746
-0.790241286805236 -0.152280642692163 1.131527095182839
-0.113949292992408 -0.491431089881498 1.304542144531766
-0.315645563699230 0.962400571607796 0.438241351253563
-0.648323675484114 -0.675276867653704 -0.222883277107631
-0.791309502385572 0.507964366815848 1.292127577411537
-0.824151841179803 0.376737862355685 0.638203880943752
-0.614696661289570 0.710517472472465 0.330714446377222
-1.087576622522561 0.454914415299312 0.006604263411477
-1.102957199874199 -0.145357373645131 1.055037829214079
-1.330109848830861 0.439039046109010 1.007553517904504
-0.974480016281206 0.150547128798165 1.002207520318413
-0.418868685043854 0.550014835004305 1.210650051615104
-0.563791222378466 0.737384444908092 0.143424704583640
-0.782556066311598 0.509133907391048 1.341747673762268
-0.663083534027719 0.675091783481200 0.579401321630933
-0.442345613707337 0.668122104307145 0.808096233937691
-0.974391086600799 -0.011847334240716 0.942876288832465
-0.994081284804506 -0.175441225693479 0.510505042964860
-0.704619330049235 -0.193082574517433 1.140563780174883
-0.938290379663635 -0.818113266941306 0.429751634277647
-0.460431886102036 -0.371018058844033 0.830549325835793
0.018960291348843 0.076140895398290 0.952115339306948
-1.132408725481113 -0.092261220950686 0.235237559583097
-1.233837923511266 0.159668192344718 0.874467725216090
-0.828044522400257 0.124217710041199 0.755359864505641
-0.861508799539850 0.479958972189616 0.759528981284852
-1.145113330740670 0.490167559836025 0.673769354601366
-0.330295708241868 0.430898835196413 0.760221512984345
-1.135442915685299 0.901401350508252 0.584456321265362
-0.665685266918279 0.518011592874340 -0.189889360060479
-0.876796387060609 -0.440208908872945 0.835549784446448
-0.158569434208433 -0.272317668577010 1.144772069825657
-1.052401762169051 0.663568972321371 0.234881674961173
-0.578426719758619 0.431399640313635 1.371743213911826
-0.086356544759193 0.077372583954855 1.240596146383172
-1.450874653122693 -0.303626315830991 0.577725402148396
-0.837902044246580 0.055371776815326 1.302247879129717
-0.420578156364176 -0.154705504381789 0.923688375089339
0.014895755887883 0.394878002433815 0.991622977523850
-0.445030919962874 0.271894019526022 1.152588316099862
-0.325778769511026 -0.830768266448201 -0.286300386493327
-1.205931772368519 0.179180469778228 0.711244434516962
-0.079924013892811 -0.315395541522584 1.094765170066627
-0.478433891033213 -0.365573073969844 0.932580135885581
-1.192792437808202 -0.058840228173790 1.228761346909350
-0.976362151975797 0.552814368315632 0.066516407186314
-0.612451350360585 -0.785919248911162 -0.175613472334314
-0.893077365158731 -0.021678670418234 0.645484956876633
-0.525597952089870 -0.960430911039990 0.178589543276417
0.025992318140037 0.178951688010122 1.351010998286892
-0.918812615228439 0.621801399578920 -0.159032863321014
-1.038300635849701 -0.200127969148333 0.765523296216366
-0.746717860810613 -0.531232261620087 1.276574135206937
-0.622054165281255 -0.617266096594491 0.870098434237885
-1.177982683769929 0.270167391942795 1.133538770909507
-0.388330764303805 0.599261549585289 0.745233194345369
0.043699379356646 0.113545093107576 1.146442629731250
-1.061583906795991 -0.458561807455015 0.356017650775900
-0.396637923466787 -0.209440397447296 1.187403970273911
-0.611939062901004 -0.688276303229952 0.760616248222805
-0.140754516628329 0.333608698709814 1.057851800747144
-0.863984092526004 1.060280446904518 0.451695662095216
-0.695238388935729 0.027553136488684 0.095040726006296
-0.776864011035249 -0.479216106713491 0.360379392030728
-1.255465996869118 0.312497451488566 0.949491059175911
-0.135656921729221 0.844141073890420 0.218622751131157
-0.082525606068489 -0.498392384824701 1.103285432942078
-1.329461394695564 -0.017670971000812 1.016724900859324
-0.489752156819238 -0.140062469547412 0.924972324316350
-0.826733786710995 0.779456796750939 0.154605308343074
-0.329687419296587 -0.350564230460312 1.413345488708471
-1.249573969951783 0.478192900235219 1.037312026736136
-0.806495109227351 -0.175505384820547 0.091040034593940
-0.991236469492591 -0.847972308936549 0.300522937547685
-0.416331211890643 -1.025196624488605 0.808477123667373
-0.666739508813783 -0.005728755747776 1.283803296474029
-0.928336248063949 0.513898396165988 0.598554218708129
-0.404436773569555 0.489087624191747 1.302300202198485
-0.794450381127921 -0.707424724577465 -0.001641840621049
-0.028902534884384 0.037200129362003 0.946044224229379
-0.329005040018819 0.074892321951384 1.253353964460930
-0.456189131132538 -0.107419899996653 1.147298853813748
-1.269850890096172 0.385488537634125 1.000365453180923
-0.643039226531493 -0.389803306034077 1.100682125163233
-0.676961574637783 -0.825025282179232 1.021842870987740
-0.560283666136234 -0.713413373570218 0.195155276420208
-0.945366574314436 0.052930253400173 1.214868649693167
-0.404152164692403 0.453114526267863 1.428406720180067
-0.932379645402721 -0.243135993603180 0.941042722748419
0.047009301356394 0.075117816657909 1.072360011105654
-0.123019875861863 -1.001183400840422 0.291088687204262
-1.049738506864477 0.251380222383216 0.587108224032461
-1.041638673660118 0.097738659811702 0.797995090910601
-0.390098207966510 0.702055579369105 0.166541291421915
-1.088302270412459 -0.056918332413160 0.290041799625812
-1.041617738714935 -0.328492507078481 0.470964397476697
-0.854934184071411 0.192331366804157 -0.084576355286244
-0.890108207182068 -0.340295817643132 1.355455819697995
-0.389539685720090 -0.601999244350632 1.067678016061851
0.064775699786868 -0.970008999187687 0.366754048202866
-0.672585635539160 0.381184218048817 1.333159088606499
-1.040965244136565 0.120603042005043 1.321710199250985
-0.525135934946698 -0.454967582047491 0.607503111982738
-0.923944484918141 -0.124053702293146 0.922505130843947
-0.782855908392630 0.087454743238272 0.468613179323840
-0.585194436087083 0.682098345156207 1.165319842550493
-0.719432156062402 0.608595985310007 -0.147483207895286
-0.647474778800473 -0.278604539880923 1.230213108953266
-0.972436042570231 -0.479505715873696 0.518496313260523
-0.592450052752950 0.661011769046969 0.995286319434978
-0.851244299000744 -0.963844109127932 -0.046089040693190
-0.636320290135981 -0.532032109684314 0.458226502082624
-0.528425498280020 0.498227211165251 1.181250180014990
-0.389372902884236 0.499662525321407 1.263458972149758
-0.108520358708367 0.135381858397562 1.053866893628517
-0.661719594240076 0.171984972509468 1.090824772701809
-0.695084484580032 0.771350166300716 0.496867567213303
-0.423024914719078 -0.334171440943468 1.250525351088488
-0.410484819879016 0.659046306785815 -0.081987564559854
-0.907779139839546 0.128110644174011 0.067780034443929
-1.080564323535608 0.624028785065864 0.297217268684656
-1.139847335339394 0.072788462039493 0.431319022864723
-1.058602309741603 -0.455975650563803 0.849750159334580
-0.409858712552999 -0.080450415167323 0.717409618022475
0.287427441326421 0.004654461743677 1.031793836113196
-0.471040305873689 0.800559573310321 0.364476246786614
-1.179326585349605 0.314549701925887 0.445426743582688
-1.107173054356163 -0.037084343868155 0.950002530556997
-0.368478331123392 -0.214090200037519 0.308468093071537
-0.506030376436265 -0.694699856980252 0.745181214788238
-1.098573710653332 -0.553530594685709 0.445345052935260
-1.164029616035637 -0.678274913378468 0.790768710182793
-0.759783014741348 -0.057493299495287 0.775333909316004
-1.058064314675045 -0.644388259181280 0.003215232344720
-0.819072024133661 0.359005946343972 0.400445725315472
-0.653368594477527 -0.627570517829007 0.160781407929637
-0.704250923184489 0.349363913947874 1.193765669442191
-0.683408454758498 -0.247676420529335 1.368997636101875
-0.465709800249910 -0.410090931659744 -0.421361869208706
-1.037577549097631 0.058573120699247 0.733862119052411
-0.471757992739757 0.831707150791067 0.352942585205646
-0.291930385583709 -0.205338230924743 1.161000180427572
-0.359562593862874 0.085882106518672 1.062895686727588
-0.843263258279382 0.317085842381602 1.065500536160819
-1.293081740879018 -0.382083412850148 0.466873305464274
-0.244268918343411 -0.762313683954372 1.085436175759057
-0.677425790998887 0.172193398803074 1.292150952250491
-0.487907151475279 0.650244808701172 1.169320710676373
-0.891136762195166 0.687811649409736 0.511827856592044
-1.009437132371056 -0.210608712129432 0.845336769988088
-0.668550524042706 0.580637585854858 1.190896100844717
-1.079205947558390 0.106854954944733 0.642255554217095
-0.091220865541318 -0.320198338961655 1.346039526902449
-0.450909390037529 -0.527052335139383 0.074746974478241
-1.196643103883443 0.165398806293514 0.786482711202811
-0.383885300057286 -0.212509276677201 0.171934231121696
-1.143966954075281 0.056872391417805 0.808100010242798
-0.114787697928508 -1.020421653053493 0.198796011541637
-0.704663713894059 -0.397084242432743 1.164646584315270
-1.066195397247172 -0.395953613190175 0.797854321231285
-1.361725493825928 -0.377384456900995 0.262679030539867
-0.627420197174851 0.275822062979998 0.918614302404108
-1.524542196396379 0.146886124115394 0.094976794766322
-0.965325441443402 0.459858906294368 0.872411229569946
-0.214847341742366 -1.067383597321724 0.537819734239990
-0.606024689873469 -0.605417809750166 1.053302984434268
0.031171125299152 -0.090084713273786 1.348213539819116
-1.116182631314625 -0.791233365310194 0.359326081255365
0.071370139569040 0.175127481003692 1.045429883132667
-0.670931137851267 -0.721742094772559 0.903956798887064
-1.155914931122401 0.118404743053593 0.910232032188905
-0.950554706752162 -0.862853335381752 -0.102731404139267
-0.879642412707866 -0.428461482097775 0.183889426151300
-1.243273315935724 0.373004080480763 0.689428344688945
-1.188210481377479 -0.580241928112530 0.878331482160832
-0.821073498888153 0.124093899032767 0.390181637764923
-1.133358727123294 -0.346299621135806 -0.134792592900761
-0.878963590752784 0.492812946156935 0.671518915218605
0.035880181627797 0.823415871896075 0.490142298887308
-0.686483390864124 0.528095317429159 0.656708403899196
-0.862239083797264 -0.473110235846737 0.785475849809903
-1.026844774559608 -0.784283675375074 0.871642828209172
-0.442117493255476 -0.851668030020378 0.676911535022916
-0.404645094265017 -0.540339063654256 0.671398568942931
-1.010500686450691 -0.389655281306952 0.660527605879643
-0.597570812802016 0.842547967327504 0.813868538194381
-0.234708688157171 -0.720010641154427 1.158585701691344
-1.081748979436747 -0.568317410040197 0.463206738236630
-0.439107774781097 0.501432557786605 0.104563017935600
-0.412235794498968 0.612099864797145 1.339386693680904
-1.070029655163501 -0.201709595372707 0.189982897959522
-0.728454040233535 -0.684812703283744 0.939907311220381
0.053532021744846 -0.839916841809959 0.157575482700827
-1.364119522482356 -0.519106639652779 0.555050851596237
-0.893213982258309 0.365965000253652 0.382756791610673
-0.743569406941573 0.946964475562657 0.494385721531177
-0.049084889597905 -0.673780947837426 1.153977016504788
-0.838758232654116 0.308143871136436 0.883788308096102
-0.606563222581275 -0.030974739962205 1.514841507367380
-0.890343736109959 0.463289773019467 0.966631831048120
-0.721349271480461 0.184153254752142 -0.171326101946881
-0.902763590157709 -0.272911143623654 1.403636415331071
-0.977104840044444 -0.319058441380108 0.368024526769970
-1.042923296801362 -0.033802403881560 0.311095253698462
-1.049229864053017 -0.712738132188251 1.044752552808561
-0.643340862448929 -0.399990547175911 -0.403519356460969
-1.104581481961651 -0.160288288131627 1.066119765500306
-0.585879802631232 -0.150535936458060 1.499412770049103
-0.767854658248164 -0.558300997180473 1.213878079053664
-0.565408669202972 0.186409533989904 1.417844298930207
-0.257135105811344 -0.036821268624704 1.192313485878969
-0.826336436923765 0.210828870364654 1.395078752869421
-1.407344994157036 -0.320696502096709 0.670857627255063
-0.240853172813408 0.509360630140825 1.080764091084524
-0.111488806272927 0.437427954728681 1.316773518396757
-0.685836712595388 -0.768722592660839 0.518361737337028
-1.063646921999843 0.326545745291210 0.327657462821747
-0.815840043445338 -0.721444178259062 0.721215307828074
-0.474741209316281 0.753429105144029 1.193741357568792
-0.855325813241987 -0.236842549826498 1.221738864927063
-0.727369661480510 -0.064180120406132 -0.067993785569244
-0.791385789140688 0.106513054520098 1.211032658487362
-0.314551907731472 -0.374504529403215 1.385759066838703
-0.284358916671630 -0.073151425402203 1.208204807914197
-0.487576808781945 -0.213240739158870 1.033571920996055
-1.422965750343849 -0.001290512864526 0.409834301335975
-1.378476651758149 0.380483591258365 0.891294414247654
-0.956947097623289 0.344772238786914 0.943382654305230
-1.063561735322823 -0.248666737266650 0.883305791285787
-0.433522721409152 0.872832245570155 0.687831495822695
-0.253054312772760 -0.115669623625599 1.449588912803626
-1.106537490536395 0.015958084395279 0.671115877405525
-1.286698903129221 0.557500608459636 -0.036238063811007
-0.678980277723418 -0.646340623188762 -0.352597311453041
-0.349175194837092 -0.073927866260331 1.069662338283435
-0.065598984697790 0.281514666524519 1.050584594294105
-0.197225590841938 -0.126712033784235 1.351619334687639
-0.614209595932776 -0.462320789042383 1.107218089258987
-1.075781898486248 0.101531660388749 0.235488983265941
-0.797925971171928 0.035205427000122 0.689325996269356
-1.013514418046143 -0.700667857002988 0.266668023823374
-0.728312516652009 -0.691731058275684 0.120944445559181
-0.391453884614096 -0.495422173066154 1.147423857836187
-0.222542906565428 -0.236291669521645 1.382127811551561
-0.868192883066287 0.028921056013888 1.099727315586418
-1.332830154164658 0.438729498470412 0.328022815318344
-0.503591519359311 -0.097250983721374 1.278574103107925
-0.336863986554898 0.590822522259055 1.012012913718839
-0.545632412607398 -0.557733310676564 -0.406084875332253
-0.718501765407389 0.160143445512085 1.275744470490086
-0.811081257783093 -0.338187876815981 1.223211142368854
-0.398159182313358 0.543708868794819 1.133718365024722
-1.302907190002198 -0.712457329398510 0.188092945487428
-0.389063841331596 -0.018570949111500 1.311804542936333
-1.170294537790400 -0.387848530655088 1.030387550657489
-0.378494318784963 -0.720935328417869 0.762576480932301
-0.436878858756391 0.466764564168294 1.237711136040602
-0.903462508105454 0.478855230530118 0.427861774095283
-1.472871569359729 0.038651605825767 0.081424604211322
-0.473788913866371 -0.458254089844073 0.947588770391680
-1.045606027443386 0.375382301401500 0.300320268735190
-0.183935513953977 -0.229360874842732 0.962822746559152
-0.857951349307264 -0.548134562668909 0.813921049981117
-0.670502067372701 0.699429722938566 0.241165024302801
-0.682858511627418 0.226379719244437 1.012273636537418
-0.058559414650909 0.261861683610521 1.074060410465405
-0.647829790300839 0.147350253053368 1.270963198337641
-0.324957242249100 -0.495200191152019 1.355177854546465
-0.595473703651731 0.472773315881063 0.795449202082535
-0.216412093280939 0.162564937522538 1.034121128483168
-0.051853072989732 0.927149107954397 0.519773916070382
-0.631562002397568 -0.702112418676546 0.906670714175983
-0.752234952174991 -0.610456661084853 0.452610526787531
-0.372095471518844 0.090222786114622 1.474592681813853
-0.539375592394266 0.116205036136179 1.219215219152504
-1.078490870113510 0.533167752143116 0.656146983718407
-1.133321452209221 0.106798476577744 0.632832481838760
-0.972451662973179 -0.413168987902377 0.722820831978145
-1.218830204180023 -0.050739620514702 1.063233331889605
-0.934082937101354 0.808418951728130 0.395931049847739
-1.364900408555424 -0.358474919559640 0.633940668397693
-1.419637524819767 0.303444137852682 0.220912168650614
-1.096115038215535 -0.367333947597516 0.238183414761047
-0.844123515329794 -0.796529612830362 0.833419267814115
-0.300780639111085 -0.583175968287274 1.240601776665836
-0.445617360850205 0.441691639768344 1.120558111161272
0.103680656556620 0.056812385897941 0.942403616581816
-0.925644807252320 -0.346344458075666 0.930793979613905
-0.863974811488880 0.875065141913779 0.479263724381745
-0.712816834519592 -0.329008023310738 1.205186718750384
-0.640861884685675 -0.233690959580809 1.082334922806014
-1.084755640027055 -0.719555887772018 0.016078985153907
-1.327206591104083 0.665464331672730 0.198293480424991
-0.721236648526008 0.789246639829348 0.715522208944834
-0.554753159305704 0.667140576797207 0.197518665986120
-0.639538941313274 -0.631229307340467 0.753487329383661
-0.506837859897545 0.413567536363978 1.194938334360389
-0.663353239121683 0.987046665533874 0.467291924370122
-1.180135223333484 0.412638667140298 0.615894288383651
-0.921688534191455 0.709984903818814 0.655732211826603
-1.144528722387257 -0.639263819793959 -0.190192214520093
-0.554183280082259 0.693253012198460 0.810343037693185
-0.410445325151164 -0.151243550677264 1.236797427914361
-0.976031996022543 0.407798348488035 0.143707199121822
-0.939921574172774 0.361614265562623 1.337631783280365
-1.212484033211032 -0.384089086183299 0.357396099498597
-0.311480497506880 -0.267918359853768 1.434680507287142
-0.283495092621426 0.200442770351898 1.312432604635358
-0.617092492407076 0.564272035167137 1.198536132477229
-0.866498397601634 0.151041454335173 1.195617656053989
-0.363257788512037 0.404464133812860 1.442995930498344
-0.914012187532945 -0.233782267898920 1.085711619021079
-1.006699590031140 -0.548176863104961 0.024357158415157
-1.024013709813759 -0.742125355275338 0.744574406450582
-0.853498325131898 -0.395271505647781 0.854942004291873
-0.550753243693029 -0.812286198774730 0.095005049787036
0.006198649400301 0.903587051409469 0.352889547185794
-0.483351072353071 -0.124838823384279 -0.174854776310265
-0.934991505773164 -0.546030890313094 0.579766190560360
-0.658202699209715 0.581908622867858 0.213629878738679
-0.874016416682860 -0.179897913068585 1.152616829537949
-0.918047680545394 -0.512444626334302 1.137282658298929
-0.679192712632009 0.514165764767999 0.631261338085035
-1.338415592430142 -0.454609754294490 -0.138611733482531
-0.318540665486895 0.541036924064309 1.136597139701272
-1.080204039552968 -0.042286144185335 0.205025834181287
-0.983259157045605 0.750738106817264 0.782458998120750
-0.374314665963118 -0.831760349276548 0.907240466830275
-1.371521168994670 0.137637389722051 0.999859992218131
-0.094997337421445 0.051929864975689 1.014794150540009
-1.279401788644512 0.582994858087683 0.451166367965043
-1.528801811637199 -0.139544482520315 0.662593991023263
-1.372235400193432 0.295949374928591 0.995706135540672
-0.990272870522468 0.224675789360486 0.150053644622154
-0.585708605914433 -0.862127441177566 0.739654113617202
-0.620053702840844 -0.300951123926791 -0.134528828587092
0.180019906068062 0.417839398101423 1.137356212931286
-0.710580682556245 0.450673865132542 1.210443470365090
-0.849878996594178 -0.406141141257328 0.322682942396352
-0.287014357089289 -0.520542946163103 1.131593817672906
-0.366464308109522 0.139092136410162 1.190342533764846
-0.262303456210763 -0.087429038523497 1.328695625419887
-0.589163784234983 0.698364307529650 0.466061020535544
-1.566903198268812 -0.049321258215349 0.324845655794161
-0.509636315612514 0.916134606197096 0.395023549286738
-0.862088388367530 0.474642108638635 -0.235757923492577
-0.506095104757879 -0.063714990805231 0.859984613526725
-0.347050394782659 -0.117924542472898 1.317685865149503
-0.911067049196550 0.426550540029908 0.786930960650654
-1.356716395240987 -0.074350768145813 0.350758151588668
-0.979346510558621 0.321219048091849 0.865876538967712
-0.699671881003486 -0.566231473165312 0.713605537924977
-0.331613404975248 0.799826985029130 0.160698502877932
-0.218530573112583 -0.293480318788970 0.970859988367159
-1.260554484833006 -0.362371746435733 0.818115012429503
-0.186227240436674 0.838907675040591 0.002333430935500
-0.251603330652377 0.260867840126434 1.172285058670306
-0.412643344617211 0.053040239876823 0.866800001462969
0.233418341237967 -0.315358312177734 1.147518226034384
-0.719306724610966 -0.079757625797477 0.840325148725889
-0.986431501508167 -0.077033945341534 0.980782235378826
-0.591714333263886 0.727905007519716 0.965830820812188
-0.390295128447496 0.505910687007064 0.236789321198381
-0.982891267930128 -0.096549542329048 0.654265955981210
-1.114178675216931 -0.731499722565625 0.860830748040615
-1.232216840199417 0.043972213847398 0.800877979625691
-0.484047802350800 0.353765450690724 1.166639877682490
-0.890709112180041 -0.899523143647887 0.594906908381056
-0.434641026456985 -0.528506161545432 -0.264073967218707
-0.771359443137918 -0.731865971302638 -0.087630493804619
-0.790211302192151 0.243972480119224 1.305133327600560
0.046100424683898 -0.881408608642222 0.042624649527287
-0.210775067744696 0.237778069348983 1.389876224706289
-0.907338582648308 0.627819215906784 0.508542719867156
-0.186555531448737 -0.102750138240529 1.121163379271397
0.246714377021255 -0.195412274858996 1.217227297521843
-0.902440260861741 -0.268074626187428 1.232233244150338
-0.495968609201845 0.213345137757481 0.935679592119999
-0.539318678841455 0.674690854794931 0.917132679726861
-1.526336252582029 0.115409287276585 0.395945977823227
-0.500980425221293 0.587307067622260 0.896209693636865
-0.795547860669218 -0.277305867874788 0.863624821785730
-0.562777214667014 -0.323570456731256 1.436254817613674
-0.344495741042870 -0.514419448244031 0.469354181507113
-1.055606989524720 -0.347524136845202 0.309227244501396
0.319864577370380 0.076856350487708 0.942788243975425
-0.378678611917958 -1.041339121574967 0.175529879180066
-0.369276774331407 0.171271705929925 1.269043723151531
-0.826089971038102 -0.081955315666439 1.277530556451808
-0.773923924207313 0.544976224987228 0.179926784850461
-1.206951581682604 0.142964538765942 0.684484314960757
-1.048821149989508 -0.143155769651838 1.106768589357009
-1.192621016873659 -0.065818809066356 0.773820424906824
-1.385300263942816 0.593362586777120 0.150846009257527
-1.467318288754818 -0.165955433377052 0.478331056314696
-1.284445206683034 0.074883451580168 0.683240711407710
-0.006787643502969 0.485157920389999 1.063558689041397
-0.549653662089107 -1.029702995500677 0.327879750285054
-0.912394190459431 0.273715425093622 1.279402408334011
-0.841186460733654 -0.183743025681055 -0.205225930070973
-0.661892500196819 0.509524357243539 0.903520726930741
-1.076647468519230 0.802529017058188 0.593882216582313
-1.118161137879674 -0.864231715076760 0.299951842889216
-0.413594816807480 -0.289112267502220 -0.326495530467232
-0.088553056123194 -0.380999809360589 1.135766203807463
-1.119403430470484 0.448423689016013 -0.130356008837127
-0.637207565867568 1.051634558278538 0.525784937237596
-0.971320169794196 -0.129465792707109 1.297926107943498
-0.089484389230661 -0.086961518755025 1.082549575432100
-1.278938616722124 -0.267817433303711 0.225369632105293
-0.942841690994196 0.061316286484266 0.683835506012264
-1.008735196601974 0.056774878140836 1.233628074696148
-0.334435178856903 -0.686400443356389 0.589918772489351
-0.244078062245412 -0.022754739085290 1.076758411136660
-1.074149500237882 -0.335498983255119 0.997150790748851
-0.934665620304644 0.453516545134465 0.619947154656669
-1.014148864368032 0.648612390687443 0.755756344370124
-0.596199402425014 0.463446627937448 0.476722395634166
-1.097526122570980 0.091361766962934 0.182936926508156
-0.590869647386353 0.410775737516301 0.992313065066241
-0.865989456667468 -0.350347911068237 1.217154109741513
-1.415556371003142 0.154826951713704 0.699117043784491
0.294919247276358 -0.267613692145582 1.006361992576730
-0.377702856879214 0.608294643046380 1.067609763497209
-0.321242596827808 0.475378565049840 0.816497753084388
-1.369866845578354 0.202173426115523 0.584473047091839
0.311658765579213 0.068357128761886 1.139602194378785
-1.042043524734309 0.286636692754480 1.198855644362023
-1.492372750435911 -0.016199899895052 0.468836806689568
-1.035335274983168 -0.445066892238031 0.286965443990372
-0.453438499348812 -0.318873362591542 1.026470639587299
-0.698853132862487 0.121197703935332 0.914308907338013
-0.672904820558643 0.100978979900725 1.175118157567179
-1.052966090716789 -0.410014225741299 0.431952723200406
-1.358494797764356 -0.058140265496454 0.646237750720557
-1.377012689455967 0.166759695241595 0.807192423379995
-1.357109810762156 0.372681130534971 0.246363906407227
-0.467998124349273 0.423669687798580 1.139181671720086
-1.033211474392045 -0.455834710528575 0.905563817863947
-0.881367207264419 0.810173331827221 0.466174946440152
-0.346627893541628 0.857256185839360 0.194102492801563
-0.394678436268320 0.464819558219141 0.408672946497819
-0.792664555634242 -0.823265490193555 0.405313714024179
-0.601973574540422 0.203336917496855 1.100899913464335
-1.032046286434389 -0.278650970754984 1.006951066653587
-0.851592312459409 -0.627380178664890 0.366839120036714
-0.586865929756746 0.413337219702391 1.029420201012216
-0.619516034102152 0.865207418468586 0.137797729209585
-0.750945467985832 -0.916907639649724 0.844397450269824
-0.511379453040947 0.481508662358098 0.928952112516659
-0.824961597622600 -0.194213320019169 0.870249324146908
-0.252815730343477 -0.271253459374752 0.993454957809296
-0.416762861517609 -0.904471240309318 0.874147547184705
-0.802202848818069 0.825117965795734 0.361554798000164
-0.637450702583230 -0.344197872529492 0.937503304693038
-0.711191326428119 -0.277420229320827 1.118315318786490
-0.495522915422805 0.819085603535651 0.133359115748820
-0.607801764921384 0.883139555295446 1.023495344657774
-0.922217131522177 0.021059095656203 1.000131380601617
0.134539599515346 0.098832961998189 1.107569740190059
-0.932024288395892 0.406596374241567 0.662940628060644
-0.201101546429299 -0.974054657450345 0.855765730742556
-0.698210773544566 -0.772897981194866 0.922369390453912
-0.645806862381020 -0.705934305399781 0.957120910797218
-0.784924948084118 0.546884972273185 0.130838602609813
-1.117194367632568 -0.814097340436560 0.812742381174781
-1.272738437578524 0.322731741267299 0.803119009181265
-1.401921572051849 -0.091206868869652 0.751656024320276
-1.010418804098213 -0.140648287272009 0.906036640040571
-0.472910119532972 0.955979542749599 0.473005108923916
-0.226267286007076 -0.348347761808919 1.364013861304521
0.068817375711501 -0.340005066233708 1.036019225254719
-0.499821090538452 -0.320395790603280 1.430356834510917
-0.891288631032431 0.683096335870744 1.183078191223558
-0.186155984794237 0.737272179749742 0.986857225047918
-0.102905003101880 -0.319615406354695 0.967240847751068
-1.015886294753569 0.244613405191469 -0.196083790462391
-0.397234343837989 -0.378771399138990 0.042546855443085
-0.848567494524662 0.241786139267642 1.328707517097609
-0.356643043225207 -0.376307594532762 1.122040213582312
-0.773473197811798 0.363893910217501 -0.120078597188403
-0.624166360818717 -0.222080151191447 0.869185258775714
0.060148729887983 -0.362844301887702 0.963046271254392
-0.533075124162482 0.522451642087690 1.285146775021681
-0.340204814106669 0.714226662686545 0.920503215434461
-1.233439565047440 -0.623595314497386 0.522798999125121
-1.267476166752286 -0.158329841073225 0.485858828177329
-1.356466714271339 -0.168960813546399 1.034676345897703
-0.840238565051820 -0.712330198986990 0.639691099035330
-0.480563264774678 -0.078108828136331 0.552606185820829
-0.356207090701680 -0.751327761536467 0.222438286319491
-0.096567038088223 0.601791170684881 0.964765707323511
-0.538094685466094 0.069092656091647 1.041352560138770
-0.532231108526250 -0.665814544261151 0.352461246322241
-1.368217182822160 -0.088114274824278 0.346711456575390
-1.216285808255068 0.687716158900255 0.759416723943670
-0.561545287712852 -0.638405136585507 0.961679929796195
-0.261139995487778 -0.241622570206058 1.166724995327396
-0.171570727444088 0.757415877616176 1.162710695597129
-0.156395340138255 -0.383320203524718 1.026033158247717
-0.675664577971903 -0.073727662021048 1.249309994020759
-0.363373844013141 -0.576557473745356 0.631718235692012
-1.182788603922231 -0.016651153192966 0.892133382180577
-1.010783183934051 -0.763784662766841 0.849723085784279
-0.821062150828270 0.557262825134268 -0.076130587730371
-0.601684096568599 -0.570301770362432 1.192009694913735
-0.289099912476009 -1.040064194769327 0.410696356489042
-0.569769437257035 -0.157259889691241 1.448726056196772
-1.032775918872127 0.658774148344309 0.677143058200732
-0.580713502016984 -0.917251984736006 0.663314842116901
-1.474656679703685 0.006259863606585 0.827664182118455
-0.408565876175218 1.005971349702905 0.586010779024145
-1.337667786085912 -0.089336450483325 0.506017736347341
-0.554519336862057 0.137555239427531 0.250701807539179
-0.907133795418040 0.245549365407623 1.381473452718601
-0.770447266137581 -0.192277849720830 0.987653714466418
-0.943705114541450 -0.147448934345971 0.486474777698567
-0.875782067853874 -0.647731492389644 1.225336414466808
-0.417081832726616 -0.268678191877423 1.485149261049961
-0.671348072694530 -0.617742147994496 -0.030282765248068
-0.573870252427734 -0.655298630079994 0.788248387480661
-0.838884933628608 -0.001804510571798 0.219027016635413
-0.984607622888153 -0.342352908258811 0.092568307409142
-0.315905111599173 0.373225081811871 1.148232713686896
-0.891081222089153 -0.361093251635688 0.761498511754733
-0.499653162571604 0.390561002852266 1.166801580001684
-0.317530716571632 0.472163367150410 1.197303478727354
-1.400702603732723 -0.059985782514919 0.363204283211332
-0.728241273478419 -0.610025729538896 0.938184291418141
-1.066956109296384 0.542437188487273 0.447643903935874
0.173332837151133 0.541907105660514 1.046899554711869
-0.430527026779497 -0.878809145545964 -0.241568440741811
-0.825719167348828 -0.595385390506673 0.927036132398124
-0.660740506844069 -0.140465141015170 1.196957132047476
-0.849854609371390 0.071301723097239 0.667750052911268
-0.440911214893807 -0.551387146892458 0.450254765231695
-0.258418145569351 0.092441590343788 1.257305038944718
-0.705976444561471 -0.002885500404507 1.204071222970099
-0.933529556546338 0.531036185996325 0.147815750400007
-0.557550873840926 0.963961933742154 0.834770356351447
-0.203329247353552 0.146875701458269 1.467796542707558
-0.722261951571098 -0.109335757405768 1.106104493784511
-0.037908766068464 0.440149136674853 1.031107862703751
-0.354751018960442 -0.258355501776136 0.272110569452251
