# This PCD file was generated using the MATLAB® pcwrite function
# from Computer Vision Toolbox®.
# .PCD v.7 - Point Cloud Data file format
VERSION .7
FIELDS x y z
SIZE 8 8 8
TYPE F F F
COUNT 1 1 1
WIDTH 861
HEIGHT 1
VIEWPOINT 0 0 0 1 0 0 0
POINTS 861
DATA ascii
-0.301911359792205 0.176412226337652 -0.139542128296731
0.016987511615556 0.008627733840845 0.509741862765302
0.043426589583451 -0.329281857129408 0.400732894008786
0.040686270213053 0.151422571673923 -0.634700960795139
-0.028989758628115 -0.307367346968939 0.460039076950661
0.428954996892825 0.152092337028718 -0.630427480082109
-0.178457907764524 -0.003758926477747 -0.030639442558637
-0.342814506343579 -0.262639739206406 0.081035365377287
-0.626255700387786 -0.115802716894564 0.163489412587194
-0.106071748702434 -0.038376488685635 0.550866911437508
-0.000555380179339 -0.055961936727757 0.315152158045857
0.193490340314206 0.442446273782198 0.244611185146524
0.180106408543006 0.208711432828882 0.424239286215421
-0.441463330814965 -0.057406306466047 -0.372322673415830
-0.479863564814855 0.384134886357595 -0.040850178443302
0.239302641614788 0.091536154155104 0.057658942356601
-0.052350532803061 -0.424823165064210 0.321216309207995
0.176017979656331 -0.055335190203492 0.127854308566228
0.150141545503458 0.188228537898243 0.618477533975933
0.000948347830039 0.085735906680516 0.764226555958961
-0.591428000014055 0.528322090516512 -0.081583052958768
0.150960220736195 -0.339062626051204 -0.414236276927657
0.006851689910008 0.045727956931976 -0.493585431457299
0.106198603898965 0.173689101112697 -0.506156084220509
0.155370948602899 0.506598832237032 0.158396515908642
0.117516452031531 0.540906425524412 0.013375009165996
0.288724656144331 -0.363415624158897 -0.211242587400063
0.212988347792460 0.687370268783014 -0.360876180389024
-0.545534986209808 0.060906112071797 0.469628427088803
0.155249311811815 -0.195106447211023 -0.574775465387341
-0.116410346070096 -0.511590353651810 -0.229307323731466
0.129340441575193 0.003518827386005 -0.673810315406969
-0.381532221770102 0.220004367772110 0.494460232286570
0.122869068352316 -0.307479170400364 -0.330332443055976
-0.069991087865966 -0.167262020813979 -0.465207289279010
-0.145608425354262 -0.459921337570427 -0.192467404625770
-0.231724330497370 -0.143421865504341 0.335960738882110
-0.251955889458187 -0.330732711075835 -0.341081728772813
0.586842811135016 0.377190358836896 0.326393637386896
-0.324018595110096 -0.330287466948432 0.542249073246122
-0.302825748497486 0.421549396270127 -0.016350726496882
0.201749525307736 -0.650961302930433 -0.095832127522397
-0.226129026607805 -0.380626247188297 -0.084500117966855
-0.072084272387007 0.068540573041102 0.667733578997186
0.462452260088903 -0.150097538769087 -0.431091755306843
-0.182909482849615 0.354511563134702 0.382224641888924
-0.327486725747523 0.005445656756675 -0.377290416499699
-0.075139932703963 -0.046162339406048 -0.755609318144744
-0.461884305127063 -0.241597053564208 0.139468550114794
0.572877431147911 0.218607812200557 -0.076374552369718
0.076329027430390 -0.076777609697228 -0.654253904698600
-0.011240892638933 0.274700584645126 -0.475731257292078
-0.036252066828998 0.242853330719113 -0.618480096318148
-0.225502609177122 0.210077724338365 0.519242934534428
0.152985435802304 0.041182754769981 -0.562053644529634
-0.424951617277174 0.459694642091282 -0.060960115810456
-0.080979439117247 0.509000598835762 0.020452875111287
0.301459376604496 -0.038910298615546 0.371343170718595
0.557812450979801 0.031580749430090 0.332089310721320
0.233970179171075 0.229328993866378 0.598281216020905
-0.076306069874041 0.093154802367950 -0.578586836110162
-0.421092607061342 0.186844358716313 0.616358155531268
0.387020295677328 0.093920954596273 0.412841045119045
-0.275893039405816 0.376229062435466 -0.233055386523239
0.415116607394193 0.103418934183700 -0.373720965638707
-0.398634782399295 -0.228994282579506 -0.013229905456250
0.199760441924891 -0.191246508679999 0.399155995225422
0.223083318047012 -0.053629011754413 -0.418655204697837
-0.008557142096449 0.090006984836524 0.437153852316352
0.022378901307110 -0.328203060685490 0.436089678401712
0.311529275712660 -0.028627665801061 -0.671537782894726
0.266374822169649 0.221621047125221 -0.428298295379684
0.219753711272312 0.246829906062892 -0.224732010120329
-0.203140272313387 -0.062154111098077 -0.610729141741612
0.264556640227303 0.175457576402533 0.111661407011353
0.177662994834022 -0.127576233638669 -0.583884530347401
-0.228350983056719 -0.079128994453041 0.543615306364545
-0.039597216753915 0.077581609437089 -0.690139908728744
0.657803876814038 0.084914492553686 0.041468020983181
0.111875278808072 -0.418947419729155 0.400122811265854
0.387715000672470 -0.136104756415745 0.503787834259137
0.383318563556934 -0.310765998502380 -0.559469425354537
-0.434135189496187 -0.326078762725323 0.093210832076045
-0.256057291935026 0.019108114914226 -0.255732185700236
0.247971741277310 0.298101347264567 -0.200421404597212
-0.190387535676139 -0.129749959414065 -0.296456629298917
-0.483510636314112 -0.467807053376393 -0.097780832792902
0.561150487574729 0.128324358795003 -0.338739553709133
0.654042974483841 -0.390896333726968 -0.026072507892627
0.198887357406637 -0.321391297979682 0.542106426806697
-0.027039469739829 -0.201265378719634 0.120928322108097
0.203972477273983 -0.377679750475809 0.453274000475187
0.473092393104905 -0.118946245115947 0.471606496649657
0.276942551461302 0.144474262962734 0.334608429014383
0.088023017105714 0.538672621999967 -0.048434826931505
0.009750228319319 -0.009010249736350 0.575825013154440
0.461906477180437 -0.503741404914565 0.349006420484199
-0.546436911253703 -0.338084123426601 0.080897513188431
0.269207835424182 0.089724466429809 -0.088004604527354
0.395440182618860 0.481666955929028 0.094354978396796
-0.290667804608652 -0.347170518545882 -0.481078230099407
-0.210853829334026 -0.343968734853829 -0.293336402624182
-0.396430420893240 -0.260008432515728 -0.405032810775652
0.282255266450172 -0.690454120202426 -0.343706308257903
0.383836119398874 0.014175338646201 0.350599959912270
-0.226008509139516 -0.103542772841029 0.483205988344724
-0.057782669459566 0.297682720011819 0.422047439078162
-0.004513074469890 0.175532604832598 -0.598195314461076
0.381511150450679 0.069897330553978 0.316641546466439
-0.247982655172568 0.012240655166232 -0.285032239429901
0.435659694606996 0.384169648640819 -0.020522425371104
0.034260683177013 -0.152508664630908 0.559138525719454
0.213035896595585 0.521675301561484 -0.253879044133787
-0.298681631455349 0.206180804868169 -0.281676416614644
-0.421271519606369 0.169776008500427 0.251863741748557
0.421941781320706 0.001188310909296 0.361951290957125
-0.107759523953859 0.191538883238008 0.352272271514237
-0.021254759070497 0.102537854108798 0.482495517274732
0.135835216212956 -0.299230081651020 0.408613108494109
-0.160932276075244 0.094696169315168 -0.425558362989202
0.160531893941567 0.162318319799262 -0.525484959235244
0.098975104096622 0.179303114834345 -0.447683255163052
0.093744344818625 -0.723563266013929 -0.377274971847467
-0.140758193270843 -0.033078983752119 0.413424252160322
0.417696312840270 0.111687256775560 -0.246406554200266
0.248815566570845 -0.227904415978998 -0.509249885736825
0.100129344662664 -0.415416228951313 0.347044893781654
-0.131680707261736 0.718559996315357 -0.319670874532403
-0.105292056370303 0.162458581263129 0.631976401651192
0.075344265315968 0.300503042296895 -0.398538994695259
0.095673044690182 -0.026546821320846 0.672202954365606
-0.382560341081236 -0.654430481233335 -0.025656337128420
0.045172174411764 -0.110983810567274 -0.603655654652742
-0.072200987839598 0.321921311187676 0.291359956510768
0.209787898875786 0.204676514201687 0.480301442728547
0.071759801334868 -0.055398462197937 0.215394093930464
-0.106070065896747 -0.022686450997768 -0.624220327000531
0.334334297137459 0.454537484106355 -0.244640633655929
-0.157117065879181 -0.046920728455747 0.259456439376528
0.095602077481604 -0.536492234921603 -0.099130452873207
-0.022053372476119 -0.110879099674868 0.599457880413751
0.264171513689717 -0.142599804590727 -0.185095681209605
0.356042579929975 0.219022766564898 0.539953854452747
0.082969025043438 -0.260618377812660 0.522431722316246
0.283728326290337 -0.261410248074868 0.433681912282215
0.228446072544761 -0.110750889041972 0.500779154572539
0.035953041589421 0.022306610703140 -0.322551275778853
0.471190577514378 -0.130429128198353 0.125226866077846
0.058016884852980 -0.056201502024295 -0.577170890318049
0.041180458446443 -0.257897211504330 0.585141864190824
-0.231741444762040 0.626260110613616 -0.388720811617702
-0.152252659910874 -0.112211525098148 -0.546552254169989
0.203484331525819 0.193232516487006 0.710980188593870
0.283898704629558 0.653334176547856 0.102413893774984
0.045086601321663 -0.415320830527790 -0.267813686991498
0.058793456932796 -0.341909556259357 0.640135372375148
0.225972452520628 -0.291140863509094 0.403456799306019
-0.429448850688328 0.316879468652830 0.064337912418800
0.512704405830405 0.106395615719487 0.633818252808672
-0.397431898780928 -0.246880962972559 0.463722176982272
0.201239209503394 -0.341171093494621 0.228998925503745
-0.325869424507550 0.446066778279294 -0.173491666656223
-0.175099089353599 -0.334936201579271 0.632084284668063
-0.646669334956104 0.282723483599626 0.098716771007087
0.014685934345198 -0.584412160628251 -0.230974749366048
-0.058075808639721 0.355339761999175 -0.261828609211008
-0.353735990458565 -0.153727850726497 -0.313451928511938
0.309515966355424 -0.067005625815462 -0.727905063209897
0.021448247281601 0.089821302556342 -0.621481070921695
-0.143446035469368 0.133575040972580 -0.713313321227789
0.238070630341692 -0.469070201158110 -0.071047465624750
-0.095365529651438 -0.422143387254453 -0.332561491175528
-0.179854387831282 -0.207703948579280 -0.413188588136680
-0.306307775581850 0.282261322537558 0.075382897675199
0.380585368404261 -0.211770811810216 0.230377094270616
0.400117413985265 0.198983999476692 -0.328273547304461
-0.488472831046082 0.038233404050691 -0.524127580541553
0.347495513355603 0.179050749070276 -0.351690985702358
-0.531928864345634 0.098848619741658 0.461882986863089
-0.253056458940060 0.296470708141030 -0.139258543272920
-0.182521673739615 -0.006935395151618 -0.509298872298308
-0.082166211792485 -0.050458277689328 0.418863461546521
0.401013462659821 -0.095495228485365 -0.125551081164265
-0.045550300277603 0.078582746161711 -0.385100991166381
0.289836783070134 0.071330678242986 0.160518551804631
-0.498210879268773 -0.002418386819944 0.083089945457703
0.113425968058462 -0.098055766719382 -0.607360744730855
0.305275417354089 0.097237472201661 0.294203605641674
-0.289542305702049 0.425211511476177 0.244360736205881
-0.019764575891324 -0.038200167432981 -0.196213724846712
-0.744444532318693 -0.106456086903861 -0.307572363718281
0.622173241650972 -0.075531263256844 -0.079635254534528
-0.459427115782918 0.037682908720887 -0.407847195643708
0.389550896069954 0.343097222471870 0.023677851065388
0.611946545335958 -0.041720879910736 0.396208040798469
0.265106930029489 -0.072449212821537 -0.325727236474462
-0.256361320794360 0.003625038737601 -0.594911551610297
0.590534654873897 -0.091705580583649 0.017785225170112
0.366724888084023 -0.314007848770483 0.234118515559498
-0.296844216242353 0.418812532081390 0.371516337722727
-0.019307725629998 0.112826210104968 0.445448806388668
-0.319506155558401 0.284265683114280 -0.364314110028415
-0.184948377515339 0.382715007215744 -0.361966108957625
-0.018644666556557 -0.056663049243433 0.673222350090256
0.014583914795559 0.032057776012187 0.328341655497722
0.108339255137321 -0.370391025391127 -0.236856308095238
0.152499326110090 0.129422931242444 0.504920202503977
0.380083308384912 -0.338488790944531 -0.596830193044468
0.168636522511195 -0.223446578821376 0.033864095885061
0.379072212674914 -0.210536643442976 -0.028291557906735
0.411395029514149 0.056834298621857 0.534851166099878
0.223951361479238 -0.290373132895646 -0.651947503008195
0.151020871445907 -0.017632570833081 -0.538706297311589
-0.209179946538214 -0.113707221147739 0.615883443942493
0.371428360273575 0.229763593847071 0.286699304641749
-0.647011221829485 0.325181802279932 0.009689404986321
-0.027690274777206 0.115539945156615 -0.591521712787378
0.366684006722452 -0.522384626972461 -0.329856976829137
0.278467953296144 0.375581714942747 0.174654410078212
0.143837794949648 -0.127925162378416 0.288139566330616
0.243494577825543 0.299312981346259 0.314427982534415
0.111871240799721 -0.331219460755919 0.050541208693157
0.481850472008493 -0.203097607006221 0.041333640308202
-0.714432521007496 -0.309759279394007 0.105276369843104
0.055461221493450 0.073215597572917 0.532307761454729
0.115933790112425 0.097443288009998 -0.574257754823370
-0.032845548978611 0.074920751097414 0.274269739507364
-0.249997751678553 -0.293958689123980 0.258863392207243
0.247757922232965 0.030016155479174 0.225386607922376
0.309522807989456 -0.041867115577793 0.215502557751183
0.087214591851349 -0.369291073644827 -0.452220865985805
-0.461124259131129 0.012127237133591 0.167388183971946
0.202358544842267 0.276229328906585 -0.504432420449255
-0.388990873426370 0.386077441953949 -0.176235313121252
-0.030311247356518 0.188046541955153 0.232717256966963
0.200591940812865 0.191839805683964 0.069227998612889
0.445430646557108 -0.517011106528439 -0.065606802686838
-0.223189963697056 0.005528076903059 -0.468355213448939
0.064790478717254 -0.013841849989402 0.777757531960383
0.439521165593183 -0.168293283026224 -0.492388418005933
0.475383227278344 -0.022839679623652 0.010610519220731
0.400416433222270 -0.030443961010933 -0.295121758296642
0.288732352879801 0.032584936279727 -0.504729593021974
-0.464399445370799 0.462472310098840 -0.250635171717952
0.407213199742721 -0.278838120146168 -0.523653895669379
0.217535198564828 -0.327531684021827 0.469095640780919
0.100878741503743 -0.083475573420038 -0.550690233399848
-0.303575307275934 -0.254187013920133 -0.152834234465001
0.282767220599433 0.080732295269716 -0.668902490152802
-0.024075696168899 -0.426488561778661 0.484366974476536
-0.029520074317880 0.084235259800448 0.562012010619568
0.049153076707308 0.005935101282898 0.498166376506741
0.565197541741129 0.034880960799614 -0.231768377337436
0.103732307701478 0.015374338986018 0.632704873944660
0.083451410535560 0.274536303713479 0.764581080536035
-0.032048482333884 -0.042085896007673 0.620460394235159
0.457720729057913 0.008915066456704 0.302032471213038
-0.314679925114249 -0.285026989010355 0.317847275621335
-0.321268287336023 0.449844176920591 -0.028106249918393
0.217171698937822 0.343517637048546 0.203185310978003
-0.334337940489107 0.017334358186817 0.547383900833239
-0.029920625790344 -0.515645752559861 0.236552689832981
0.064278177228064 0.089785078551721 0.641450290666897
-0.093555643741355 0.015231322280154 0.576449713040439
-0.088657464242588 -0.165889031056132 -0.253119946864605
0.251053415390219 -0.280633836613849 0.348351808196845
-0.271379874667915 -0.268594361355558 -0.630777410981571
-0.190931647992569 0.427677594625944 -0.473519263400828
-0.110265208623699 0.234554751500456 0.299692471533301
0.111297427106558 -0.106775727395773 0.750744098220087
0.721196827328486 -0.289352167856265 -0.221198382271010
0.380305567355927 -0.104989738723200 -0.417584682787390
0.185517277182447 -0.201592237877607 -0.578121860250625
-0.085648342631605 0.138319142476590 0.579309643315462
-0.362840531235634 -0.540905156954505 0.101826720774134
0.395377015696798 -0.059499300574316 0.487613935435949
0.511986460950318 -0.207564156703716 0.062809327057635
0.527384939573059 -0.277836807575082 -0.279471766823976
-0.223730374815318 0.519721826122138 0.033407027232366
-0.131145491414358 -0.209647806954505 -0.022226012711457
-0.511968121815631 -0.333846529420422 0.197206622283449
-0.375870842444586 -0.408029175591420 -0.266582954528185
-0.326402718742106 0.008180224310873 -0.303555322747901
-0.152920737499599 -0.102839375731079 -0.584436649235163
0.008017944495725 -0.043882722374368 0.810558818799484
0.054471363947261 0.122331630700997 -0.577448622973302
0.135761999468095 -0.449355706959701 -0.197998244707733
-0.406808913586241 -0.527003715300775 0.105754626865805
0.411040509028939 -0.269869649295402 -0.346378681239680
-0.028009171484737 0.113595772268734 0.368820792527935
0.099191114427353 -0.018829657943517 0.520782225027551
0.020060704530598 -0.082612617035293 0.557827275667791
-0.399853572550910 0.480463596270172 0.014009424342780
0.261665773383965 -0.422032644717776 -0.557784916303023
0.212006356100080 -0.270917048295312 -0.476812319492960
-0.385329640401230 0.011182597868472 -0.307974315576848
0.148489213614364 0.004907755132995 0.801730247839138
-0.106875284719378 0.092875065410912 0.511759184359306
0.424517810587775 -0.236894527191258 -0.101697024333191
-0.416223010329440 0.516771125623876 -0.023625418787225
0.018831646777797 -0.051763266370134 -0.162926102332898
0.131883248756625 -0.117885089472474 -0.445935406322060
0.342998745715644 -0.256420115485010 -0.174307325850513
-0.282618717683252 0.564980126116030 0.106588212162561
0.345297743937873 0.009503053494574 0.226924596229077
-0.252505164358090 -0.182173519973219 0.598110464586735
0.592021607935333 0.293481156490171 0.008286976799548
-0.070329028725770 -0.156264835339282 -0.644239938064138
0.368630253125483 -0.010010997986762 0.529029652089171
-0.454184381432106 0.292203942091970 0.576545191866034
-0.034246070386229 0.206977198875847 -0.114621335673753
-0.447882489303468 0.271064586071537 -0.074266202404555
-0.086641130197024 -0.416609226395762 -0.131731052906986
-0.088413007091781 -0.089501122279695 -0.684293015604167
-0.316229670289853 0.121775726053556 0.602052009551465
-0.475286924052774 0.160113670250650 0.218085747311674
0.108009198497751 -0.023817873926127 0.735446030354212
0.326895429128106 0.504755155448427 0.448213676148239
0.310323581439408 0.058034746564075 -0.321284403650660
-0.033153147716195 0.092668626014440 0.628299636847599
0.487765040337661 -0.195107030690599 0.039717184111199
-0.174150469546137 -0.008318097606875 -0.547698347760065
0.191627808437301 0.163856282059773 0.694145350728364
0.430458776972120 0.223752804668545 -0.057980795292875
-0.165765732916320 0.165086876127302 0.109932321319414
0.362792329921615 -0.273260234693532 0.361969835704256
-0.557201841695307 -0.000729726493890 0.006396901687702
0.311266335888467 -0.258400645112738 -0.451476784724564
0.349793070632876 0.374182658303848 0.557781881757798
0.156572224450588 -0.211823414553637 0.075574561365981
0.213297950672995 0.398405442241412 -0.641179559104362
0.093441255397690 -0.065493123454797 -0.444717873321094
-0.065867383729707 -0.127040847220529 0.409451209411073
0.027429894375026 -0.124703482569922 0.507959788663626
-0.252552414792403 -0.071346353434327 0.615115126087093
-0.001855869432516 0.092261627523449 -0.397135000666907
-0.147521984831188 -0.124021457523227 0.608502717351873
-0.075389589169902 0.230017014008636 -0.655126945279832
-0.329529720442758 -0.067012402551470 0.647614629550649
-0.365285330870492 -0.067351584055696 0.363268570820517
-0.130770018220874 -0.108900493787216 -0.108540514315535
0.224145425130708 -0.614201636125911 0.027712634815698
-0.392398057994331 0.235662674938521 -0.262544316739474
0.082408610307674 0.497362153786433 -0.540087633892108
0.146894396319162 0.444241544709510 -0.203674344571186
0.157654978411722 -0.132700930079550 0.698385461521167
0.296825886657090 -0.360665070465115 0.409736685353559
0.157968275266179 0.271493882170946 0.269123601551001
-0.734435158824519 -0.266560228540378 -0.059718460850189
-0.236329699375795 0.150124039455626 0.467694211843345
-0.455212937656690 -0.296809428417606 0.137439724464783
0.427881389844687 0.512318684407774 -0.188796660553520
0.392822148970539 -0.348080567483092 -0.319942023540488
0.595383546669718 -0.164215719894944 0.373723049277082
-0.171210293124608 0.296658158363594 0.731018155152965
-0.052613112639274 0.675365871013377 -0.088720222238133
-0.141724416020166 0.220884290844688 0.693642360794522
0.122274872183346 0.188107040946442 -0.283194166058735
0.455624528734244 0.334027979247175 -0.119656495095380
-0.257801322501152 0.637776187242476 0.425091829644319
-0.389620425671380 0.175872218031440 -0.558352257076114
0.246654066767242 -0.165848754936936 -0.005563979055248
-0.191652370892745 -0.145495850501837 0.712847932940632
0.492146021220887 -0.097817828154491 -0.013907399171045
-0.166145470962716 0.305962769544068 -0.415356346120189
-0.181280845096434 -0.071566882416838 -0.126981742477948
-0.075015736983576 -0.266521929131757 -0.602311530658747
-0.112897855828996 0.510309766623331 0.383354464972024
-0.298329427175072 -0.353935323754210 0.113003801654135
-0.449361918507006 -0.325287431176097 0.163098491224467
0.288465965027023 -0.182462883539267 -0.366878053336393
0.476746578911960 0.219826584644709 -0.052543774964575
-0.109677935879536 0.013879745407969 -0.619991173281563
0.169113447844448 -0.215432542058433 0.236446986985611
0.079976443266821 -0.274432088896699 0.682052966709088
0.540565204081509 -0.172971109343037 -0.312919426161928
0.620231672479468 0.160843446982318 0.195960282095432
0.134876013806706 0.652213396516688 0.119105714642131
0.623625922293834 -0.066832496532129 0.342975050308250
0.473630737665298 -0.506889995206908 0.087251092899311
0.045542057409833 -0.066927737286723 -0.555099301924186
0.027521435317330 -0.094258589289976 0.467065722886717
-0.345380516395991 -0.266659693455918 -0.527434223764051
0.059381326421132 0.083471556243954 -0.684826458871576
0.003197343364764 0.405010032545572 0.366687642006049
0.009674937046804 0.051421707227363 0.526746385688840
-0.135169092119479 -0.122300129354006 -0.480522738604250
0.469984512823646 0.099388284718995 0.501746785980926
0.020855410957151 -0.615404718806828 0.417635273437314
-0.485667194913054 0.079209658941368 0.323115043966655
0.117491317462660 -0.602031639289394 -0.078790157701358
0.210862268526002 0.443376514992860 -0.292421147078692
0.094869535052391 -0.051864112268074 0.669120923470318
0.423561989267004 0.020482711494825 0.367518036276232
-0.131128608943120 -0.279667554217300 0.516571962032372
0.502684451782916 -0.215258816413285 -0.358948578659697
0.094032664677160 -0.062231141983434 -0.395518685800136
0.254371102935840 -0.203221046352779 0.371094083611904
0.250221830563531 -0.085239524810266 0.244999151357617
0.315640446592050 0.343883390127502 0.108029615450764
-0.133129336329528 0.408494373847130 0.095476493845666
-0.084957654494190 -0.041662145287978 0.408772778869521
0.018546705002050 0.583032541246164 0.020216294032427
0.113301971762287 -0.332103818274719 -0.422558824346781
0.197962399242167 0.391718303696666 0.123410151136189
-0.217137386725812 0.510755039143222 0.567071307770402
0.235504725589386 0.133087103934878 0.339686324233771
0.103831417689981 0.110155794511601 -0.599978596006398
-0.248303447469314 0.331559406750745 -0.060081256279706
0.331202868957484 0.020761676966129 0.032168931776924
-0.287722410780853 0.084799718077275 0.284077866597913
-0.220692431591208 0.330304443122214 0.459737664365565
0.188702448418407 0.042848977140842 0.511174542719693
-0.085795134371890 0.216779589592551 -0.646302065986968
0.320894567028975 0.597659170941134 0.195046608650765
0.202958228336103 0.424021790156582 -0.098109151638571
0.188970617334903 0.278653278392289 -0.493707155665494
0.682469661172700 0.216440857585527 -0.169127736255092
0.088175190632165 -0.214239171197111 -0.265572406888551
0.271865574343999 -0.099019941247772 0.421203890754254
0.402243019196170 0.174462488394793 -0.017313756937686
0.615584149707228 0.104690447224618 0.122989864281676
0.226621032779999 -0.216645867825120 -0.726240594076963
-0.295160573189937 0.223124813017149 0.317787434025068
0.152698006871868 0.125692469037721 0.493916954272977
0.445688905373436 -0.233936378167757 0.563880410284364
-0.358697680560669 0.011879065881847 0.079373823356276
0.140266613246613 -0.181043307418075 -0.139084980945759
0.306291033490379 0.461084824321020 -0.175123704601331
0.500426957224328 -0.424751883028311 -0.470635880177459
-0.340804372105576 -0.089205660188535 -0.337389022356974
0.068539046555303 -0.045274894376735 -0.701744560488671
-0.258615745424622 -0.221718538297432 -0.505785580608680
0.476839817688121 0.093373574028411 0.109533809365026
-0.083305508496599 -0.247631444177652 0.570321923133384
-0.246016541764167 0.408369617447526 0.254882118974039
0.300718238717975 -0.119779540542100 0.630316918953495
0.244389714581848 -0.034910008022174 -0.590055625341319
0.106205666257299 -0.517726022993023 0.626575147001457
-0.138629951395136 -0.368649344831213 0.492585943942393
-0.324108833942316 0.316346928159910 -0.391344219589757
0.008578895436328 0.356869191272407 -0.459251463889556
-0.095817184683101 0.020317811636579 -0.636454636283220
0.115882041773636 0.343607235664833 0.344985313724129
-0.049397939703286 -0.132991134356777 -0.291162834915519
0.315218568163685 0.487474204607513 0.320537262902859
0.185559445331820 -0.178942256738697 0.516973276630317
0.146566631178742 0.466244425042477 0.456476723755761
0.030241337329671 0.020924455691388 0.245974046328363
-0.039775458626347 -0.199213250409226 0.277578317353061
0.067678561424573 -0.131306071839096 0.302123361516321
-0.236869733324693 -0.136300945657689 0.110232025910084
0.324951265932696 -0.271792579115294 0.381622154999158
0.284667258269972 -0.229468496144436 -0.489849813152994
-0.210569409494802 0.363175054731252 -0.534466531023337
-0.005021453402737 -0.106957645637753 -0.392935957054418
-0.083638101495419 -0.000759450713754 0.419981967295428
-0.168844124507969 0.201010663026872 0.582501624167174
0.172252759090375 -0.638391692526208 0.002872015844778
0.240545852967255 -0.009849034006516 -0.434962317128318
0.687831471742894 0.270588941578360 -0.045128808738998
0.161009401042446 -0.316474492281189 -0.468743410461737
-0.226633868765771 0.047882829125834 -0.669628336361213
0.167685224773302 -0.517364637983347 0.095872861386850
0.056626314699253 0.230828220049168 -0.399282987827312
0.130914954411145 -0.184365931798651 -0.424849720566929
0.617908508449716 0.038323938319664 0.163719604855074
0.200964134500194 -0.562248057472669 0.283600412791083
0.035650499353425 -0.106374529372185 -0.610738668417776
-0.401962303441291 -0.104574807256944 0.387164294454171
0.007596990454211 -0.081982636591392 0.413789112215146
-0.075293364934753 -0.037528066036854 0.624372318653787
-0.431637528811132 0.174182292085805 0.355719957065230
0.600750302882935 -0.151109089977982 0.131666570330073
0.293660745919539 0.158970072964916 0.686323808617993
0.688039327477664 -0.288943463601838 0.272616104738297
-0.065917095171555 0.075040240405092 -0.595511507711146
-0.111073000524343 -0.266241612038964 -0.501520200241286
0.204851235904542 0.363169682522817 0.340556797575000
0.188199589351150 0.103419785949006 -0.412586693370374
-0.282090035613142 0.072676987274861 0.596627521560622
0.378119460656425 0.045110374544594 -0.045272374042380
-0.571853725704141 -0.301808870844765 0.117133333803473
-0.467545310409122 -0.379776021655588 0.211047723958251
0.107434774600860 0.168700259567700 -0.257374795771595
-0.224943850710871 -0.280788783028810 -0.480162777339919
0.473673463449670 -0.116971991643229 0.209178609508742
-0.535435465729514 0.090682314663989 0.094311398836782
-0.238957106643735 -0.292526787913939 -0.406316567597785
0.175315970902774 -0.034870404446356 -0.464125244404916
-0.302640087631070 0.121864780367984 -0.384654616784619
-0.305592375335421 -0.193596599015638 0.370278518546274
0.077306439061210 0.323579622570101 -0.226639897481780
-0.477684490455362 -0.273775954331156 0.042276982170739
0.420960407689015 -0.471324896950486 -0.206750605919956
-0.395641665716138 -0.332005307850052 0.290469340544811
0.110627837995405 -0.482453317379042 -0.185206605742165
-0.120712675981101 0.148827811953917 0.434370379709348
-0.548065832890996 0.218139180728791 0.145436727874194
-0.362912231079364 0.086704420931733 -0.212980663784358
0.195221272217540 -0.337467683946051 0.516993516211485
0.265372875584340 0.564316353148500 0.238636447857432
0.011151737976553 0.058118777970906 0.519717594741254
0.358278868806766 -0.541558503804113 0.436473980542466
0.346141681335711 -0.050108024503405 0.313616116677163
-0.418118795813824 0.050729855264822 -0.620937598764567
0.156901099242580 0.531905260846834 0.043666533218036
-0.106596897250556 -0.471250999598331 -0.072985532447710
0.265441846235060 0.175452527319994 0.407790381176870
-0.153660494381224 0.115730652806417 -0.271276665149846
-0.229184640682133 -0.585358624084342 -0.362226349290093
0.089433055281553 -0.050657658033605 -0.234980775548930
-0.377788153060205 -0.103270914169267 0.691787985079771
0.364228126633858 -0.116641818494637 0.465377736823594
0.181358795696422 0.455490303435551 0.166445811126622
0.066316278347441 0.267020025819722 -0.083979060418768
0.503656201175471 0.133743066127381 0.183881827378546
-0.059644869419522 0.012867831288916 0.322753444270523
0.436638073139520 0.071209846161677 -0.037073143430404
-0.012290702740254 -0.095225648336285 -0.590405787875688
0.064245422161904 -0.353178237566149 0.427236292875030
0.490976527146121 -0.118556106968812 0.323228489069015
-0.342616585166395 0.060907447859896 0.512410755020904
0.545086760298574 0.122163978312415 0.063185160622240
-0.081779001550558 -0.102524820817127 0.421196403713798
-0.226908178904463 -0.189176842329822 -0.131348477437578
0.114016481892649 -0.256571892352971 -0.448179368990320
0.727519853918994 0.077877611105870 0.253647806471152
-0.020804955470740 -0.102515158575992 0.515284591697831
0.076914296733855 -0.011036456823326 -0.533184722955600
-0.711287083719219 0.198373775642504 0.131337188643630
0.094114709684652 0.027496264667179 -0.451702469163625
0.215808111902021 0.170374321447972 -0.077072390783867
-0.047643857261844 -0.073675327095313 -0.480346299082906
-0.001740397336904 0.158984554765117 -0.729564773792213
-0.093032891449411 0.018386906319366 0.386948151522352
-0.483180997464192 -0.279954002708260 -0.322858647033524
0.632470875893653 -0.082602773400570 0.238530923961997
-0.567623769810626 0.313672920314514 0.396158988261678
0.243639767564244 -0.495574140397536 0.094359014455696
0.093932948757890 -0.064433217063285 -0.413227315710433
0.097238749991083 -0.346122933325258 -0.461242582279639
-0.131917531209111 0.008234943990393 0.130235093730569
-0.003193691101487 0.419252283252987 0.206186687852313
-0.276077749918357 0.710697269471014 0.057490128904677
-0.438665800550743 -0.378172675676983 0.422672058337203
-0.048166199269065 -0.091361919336799 0.389453388498333
0.442995798792087 0.429745625423713 0.127028991496219
0.248296262667750 0.653715610436069 0.227749407364337
-0.024320624109446 0.246817044424176 0.506293077015719
0.262920107928062 0.429637035530913 0.147757698023798
-0.200787952279314 -0.096217476082720 -0.173793240542559
-0.687185729557321 -0.017545048448155 -0.086197414427426
-0.265652912340189 0.437255655720123 -0.153873258247685
-0.302357824616197 -0.269454405161575 -0.061092024563927
0.203357253290788 -0.271970723528870 0.281005494614753
0.601268467191949 0.093279010994686 0.347450024003046
-0.229954495316340 -0.352634807483739 -0.176492394677675
0.470044126544635 0.460638732979792 0.050827639247817
-0.019439307433656 0.396704058384588 -0.276818207807401
0.046432903629422 0.038369613407108 0.414437180514654
0.016635570897350 0.084733146736539 0.549399498108428
-0.568331010682332 -0.437204022093593 0.111836057980259
-0.314311641248256 -0.075795788660974 0.042220925157067
0.114391600753042 -0.325438539802791 -0.398692942088370
0.375278673969849 0.054386007505083 0.517888315251122
0.380074718776684 -0.087873601074420 0.660930795967200
0.118189347069904 0.193083781629658 0.415897102526865
0.260451178715004 -0.067732522067621 0.641928161318499
-0.463604421538895 0.173050669984615 0.229924655394823
-0.067767883809079 0.051707338183922 0.491457888840838
0.046928186668117 -0.062517368371590 -0.462406855633959
-0.163914697076800 -0.058456874346665 -0.521686272348225
0.326155187637408 0.393367824712054 0.201876839324976
0.093627705574601 -0.213360312145027 0.604166221965227
0.011695505127094 0.428199469637839 -0.354529454574992
0.032618400759538 0.157462155907558 -0.424843130343979
-0.045737099693317 -0.450058247233150 -0.346149650936919
-0.326021720473252 -0.597147873361340 -0.041912328892615
0.326567852593171 0.069149593063291 0.268355799999600
-0.100845444834471 0.093922067282915 -0.384830955622513
-0.096279185185453 -0.041908032473637 -0.427223796662218
-0.210461077198433 0.015107388119021 -0.496219612684975
0.095709863529320 -0.041598975985879 -0.477579268281627
-0.237928569419937 0.323382815714046 0.252216213077256
-0.021102241061968 0.094578655100208 -0.370039947397283
-0.132541901180486 0.713412965702264 0.016059014485162
-0.230574972571325 -0.239589956147321 0.219526998763881
-0.113893811314804 0.112265899978592 -0.542404722765403
0.051136641820777 -0.664767766062066 0.453425525236343
-0.096817385848069 0.150499048941246 -0.350279123097223
0.143919102669382 -0.627445668602759 0.169940931131445
0.593447299152045 0.176923804325951 0.413174820677810
0.053046258569824 -0.250765106554046 -0.088989424063092
0.165893594492832 0.227865915470854 -0.328766871034619
-0.335392883150472 0.003770475450565 0.263847735802588
0.378229124758831 -0.179831573880374 -0.602778818795825
0.021057532561444 -0.060248217674666 -0.525338572497260
-0.076330110392121 0.083016877587489 0.453973108662660
0.292835659451692 0.168947918039072 0.239200552058987
-0.736864088213376 0.119257698556146 0.343383618112076
-0.257229969302157 -0.167865156295526 -0.009181268237672
0.021989863807206 0.153163395058681 0.421434174999258
0.155785302015542 0.179287554547209 0.592979238456061
-0.069580249822812 -0.065982309032116 0.527793121240167
-0.002850257973910 0.439034134164059 0.071344018914197
0.104695853188629 0.435064049337302 -0.398037289067956
-0.013142892153013 -0.010940952601340 0.346463508172797
0.162300591766911 0.103704682095026 -0.488837410454205
-0.098712416032862 -0.236233951456602 0.400341012842382
0.048479004803366 0.006705992119168 0.512010844364248
-0.063527446313252 -0.134077851538518 0.583593960856606
-0.112837617300153 0.310242875681328 0.277789619377706
-0.223673377470762 -0.340097503283814 0.578853914130430
-0.166645545024492 -0.056903872370654 -0.596214235141883
0.126803972527637 0.034302031585367 -0.545225762254442
0.286578927068561 0.297157006118535 -0.334343292577038
0.011551318710461 0.382842049012250 0.255623268879440
-0.292562982747533 0.464167454112134 0.400425462454481
-0.233618676102314 0.100319558313748 -0.393465231843257
0.138788392849444 -0.204035294311441 -0.186802452091759
0.233052543320368 0.067360026755424 0.133872461982177
0.199578330993098 0.046350191930246 0.620349216630612
0.269928442978478 0.154839020150647 -0.440933146547180
-0.521443698093258 0.357945614456384 0.079927351442770
-0.009261334074565 -0.737679776218436 -0.133793678721705
-0.166744915048342 -0.451329936726068 0.372468973208160
0.252134723467063 0.106906274214721 0.577864706312328
-0.001498551355727 -0.403855119465005 -0.311704540365790
0.248345157351437 -0.410792375714246 -0.072469976603469
-0.272974192278204 -0.134573743752891 -0.462333522120221
-0.273629025947123 0.039633165395097 -0.167971623946975
0.264681203247179 0.163785957232725 -0.658613400796149
0.011900580484934 0.103017741913982 -0.518178706402253
0.335161574843783 0.136791572487702 -0.535644857901325
-0.272307201026910 0.264905656209567 -0.191357670295426
0.470282133492599 0.174069241891400 -0.189074302750305
0.518150930693055 0.029638990854876 0.265393576268600
0.201547322582441 -0.322881876884287 -0.283341125947890
0.498834062932820 0.350846209447795 -0.291903724954659
-0.044014791283906 0.223809051548541 -0.059856717720942
0.100321259041814 -0.117209114413875 0.481168845443330
0.082583648793676 -0.022565217380746 0.472801364462387
0.175779951561393 -0.476102952791644 0.122585307047758
0.106591978841546 -0.228888467338982 -0.501850311061426
-0.236764873726004 -0.130298823764162 0.464798544687216
-0.317469942302731 -0.133407031509348 -0.553258159570887
-0.071171890157714 0.181054341925531 0.406804376297737
0.143189612311122 -0.533821464846539 0.177353872847113
0.374153983419369 -0.075347103704578 0.126040078736821
0.088506651726289 -0.050057627449989 -0.497730898691581
-0.312676706307223 -0.246155796560699 -0.275159177132983
-0.002704245934849 -0.332700994298606 0.374722001311019
0.267361336215419 0.611277913881603 -0.211527367100051
0.249883300746596 0.649148856291799 0.119026265452220
-0.028406180661714 -0.507604004326512 0.377534128007381
-0.082469882571497 0.025397265149053 -0.573864030687247
0.353517239703033 0.632322530856006 0.032711647676805
-0.441666748005909 -0.065022742116816 0.552433426454088
0.247834124422576 -0.079530235167998 0.427643034010645
0.186023137724085 -0.328547979147228 -0.464519214304894
0.045298663980135 0.474697095114137 -0.046729810498982
0.064871663781311 -0.553652443721734 0.568689547455966
0.146098398163868 0.099041557184151 -0.550586283834556
-0.391107300739507 -0.059957089114089 -0.597774871276978
0.282204067746076 -0.179915100701895 0.118261462079470
-0.086722770874052 -0.662218980826509 0.053875743779804
0.312701992793238 -0.187162702802341 0.209866092779788
-0.098181674704477 0.074467142660871 -0.591157460006725
-0.123329807970259 -0.546846558617597 -0.045286296849906
-0.249169835052039 -0.214973991829188 -0.688315388604281
0.281427469967340 0.077809138884257 -0.432931541261528
0.356526491329942 -0.693951200260128 0.296704509626092
0.146760110480143 -0.116940203424781 0.549174890718144
-0.298158695883887 0.179206686315443 0.100752666471287
-0.028742281818196 0.304063610525974 0.257930923043113
-0.068983195872639 0.003490223449295 0.474185092168931
-0.291472497647385 -0.076155502226317 -0.356471086440887
-0.055759953425580 -0.070305510693255 0.625583446067468
-0.016824502886088 -0.148870204226615 -0.477069518700654
0.515532760361962 0.005951956621092 0.118833617372427
0.016771789191974 -0.410216582927766 0.455827657035248
-0.206246394030026 0.535713067941437 -0.190789691239858
0.067141778049095 0.066027414307014 0.467435014541397
-0.043324020013862 0.084621013418604 0.463877113837830
0.401825468558338 -0.113359250525890 0.263916980206008
0.622369651258612 0.441943372789257 -0.152404226695749
0.109483259637605 0.028021175042959 -0.580218966810104
0.172483032190150 0.461360852782114 -0.142099855750126
-0.080493062422383 0.022223343807505 -0.480802631930499
0.318329074134027 0.306936913386505 -0.346977224912249
0.018799630824069 0.122631844033612 -0.424084953158040
-0.224072331078782 -0.142954206677274 0.046708384644312
0.201454588194851 0.301087748690039 0.289297190193283
0.072176720352612 0.036543611872260 0.393275715463898
-0.192475020245803 0.668339724850363 0.200723592458963
0.386155050020922 -0.276056117863975 -0.187042213690634
0.610714837217039 -0.365984505528667 -0.247294592285094
0.118498797462348 -0.393853792946812 0.127718510698284
0.355715069977974 -0.436192284771216 -0.355929030418826
0.202548189960270 -0.201450946338215 -0.562210825260309
0.103097216408449 0.115993756645379 -0.455050094261202
-0.427240374911968 0.033297378021890 -0.477690799345693
-0.230392217376515 0.085445255644538 -0.004874987797516
0.025012371916486 -0.579745870755925 -0.111856390289498
-0.068256807231291 0.053664125507890 0.698540718700792
0.290420123613493 0.033131803757110 -0.354733349606866
-0.063852217250285 -0.165769297020945 -0.568100086233420
-0.126919835239198 -0.024846992129050 0.681488692105461
-0.022019402192132 0.029615265574594 0.528319719893927
0.173282723682362 -0.005247158067533 0.631920490595392
-0.030312478191702 -0.033820044811331 -0.560976889998870
0.752779368857073 -0.074992116654050 -0.086320455368477
0.355440631905070 0.236077736019425 -0.315062487650241
-0.357525717532805 0.616599998703180 -0.009049290559029
0.091450905048915 0.183613264052365 -0.455368339861064
0.050585093778920 0.341918010205824 0.380952524822162
0.175130820309525 -0.076483910691307 -0.485037190291255
-0.078904249227885 0.394661697055410 -0.133012089257225
-0.044909687503588 0.035509276845741 -0.504836155039289
0.467814261978700 -0.096084813232689 0.209695287078680
0.153057398385259 -0.518719451830753 0.349999986057647
0.094788122109789 -0.655009081608694 0.215911929977799
0.266805715164905 0.084804941186720 -0.762969024906288
0.195423126826377 -0.133198766392650 -0.591362870740489
-0.205045099132337 -0.591924895277762 -0.272506255723122
-0.136974091923951 0.034340622725784 -0.277207063064609
-0.067458752950759 -0.165787698742107 -0.351139456907271
0.004531002186170 0.172598200903443 0.139869890142967
0.358834837744405 -0.333625096897450 0.028125447218065
0.159850354800034 0.597316123950152 -0.279862817219334
-0.025171601117321 -0.560568969534215 0.203075774603210
-0.124035804608714 0.565297668067779 0.342882200394343
-0.233043281633957 -0.073649303971129 0.433829118336651
-0.434791171997880 -0.084445704869944 0.558759146286200
-0.171584374561177 0.430581912679011 -0.231652370099882
-0.318428540115995 -0.164919769030032 -0.582723147106693
-0.028391779565616 -0.093790829548444 0.561556260680978
-0.213041104037936 0.142248227247716 0.683337037628529
0.453514647631958 0.182195595724198 -0.375456398088991
0.217432472909521 0.177204898032020 0.598918053455675
-0.425154296440293 0.489840082658451 0.199325831385230
0.065758962509979 -0.046956274004380 -0.457937652998524
0.564885554003094 -0.261673793722629 0.235768450815071
0.462616598451255 0.368831768710347 0.035651993530219
0.525096044662862 -0.155315697760922 -0.180911944069404
0.367053209630170 -0.190034573555238 0.537980348040721
-0.309382859923521 0.153980365384291 0.293323705817853
-0.171107061448789 -0.251938532672463 -0.522436551287879
0.083965636933864 0.088363290140434 0.578222534463159
-0.067452268337896 -0.212474942236432 0.281539176073358
-0.188720861304176 -0.573990455124890 0.230283211367774
0.064868106920286 -0.307125771502987 -0.360786375721277
-0.349061339271642 0.167575523004437 -0.373136681693507
-0.579019756588324 0.204037853177639 -0.518660591469387
-0.430377435475930 0.037066471781627 0.582365865660049
0.009961816623928 0.112332500875688 0.337685912486839
-0.164402230676857 -0.262744363209912 0.364408717874859
0.252529057766311 -0.015613846139807 -0.452582117024546
-0.281546409126701 -0.442173364906110 0.495280823023069
0.133974199990160 -0.060820510326174 0.488277049147280
-0.273934904381320 -0.078584958208855 -0.404556137206741
0.408908992497385 -0.444039260730689 -0.138193138777427
0.316510990015045 -0.282127102669832 -0.471734730856568
-0.045220689036689 0.054891210029910 0.372548670221937
0.173378801580870 0.281075232125167 -0.390195677992731
0.459411136581693 0.316332392519811 0.006967712183437
0.043403548596877 0.051847127903232 -0.564662401878249
0.013086672626805 -0.153446833597348 0.568796717768550
-0.018431158026658 0.074814349535385 -0.577325263009379
-0.367724592982557 0.216594925298176 0.636360531372184
-0.282684799829416 -0.008357696371327 -0.389608026957230
0.604285171914483 -0.285829846710267 0.021820734682494
-0.478474111861063 -0.193531070036610 0.281238625677076
-0.299473634740513 -0.284493551737824 -0.375334523405578
0.024129521365519 0.063826597824256 -0.507817806273602
0.100457842257673 -0.260749843533922 -0.419579572447521
-0.398158780964283 -0.053986187406791 -0.697206052167750
0.139208344321571 -0.436843064030917 0.046125844414573
-0.504787665073388 0.032799492587260 -0.027880619548037
-0.608386802106685 -0.339611536227655 0.033165251132293
0.028869811291326 -0.099137462851298 -0.528441453980957
-0.163378887025470 -0.615065334206701 0.483694134813082
0.014375493788365 0.215998007585423 0.262247391782348
-0.512980039754734 0.160704883580411 0.353996860629535
0.120339515874724 -0.050304428870713 -0.596332457320181
0.146754357353845 0.290767454419538 0.601738115378250
0.388177484161693 0.221053544393232 0.369607405285178
0.399134331775536 0.352422804023910 -0.018613563795575
-0.017385991189067 -0.381168571168567 0.449157883623745
-0.124201764594570 -0.740593320360647 0.179679890054186
0.035343472333711 0.056474265019153 0.363113060638314
0.018895962640409 -0.060243450542810 0.796884221017549
0.156985600790244 0.016360155508235 0.453055244294969
-0.216755617626832 0.391426526869333 0.270013768577984
0.043306322462619 0.119877292587631 -0.497218942556521
0.274488618458894 0.139643399306863 0.268094163787619
0.357345803156059 -0.098258927667337 0.624591342659761
-0.473532667724466 -0.063410001935038 0.053894258071654
-0.077718531412187 -0.076577463976631 -0.515694207124063
-0.034175332969876 0.114458837387506 -0.593323910405504
-0.308318089637986 -0.536102788717801 -0.050012104763521
-0.355494886625769 -0.130127873962444 -0.475276185282920
-0.388688190424235 -0.106486052487496 -0.218747370903785
-0.237469654834459 0.511442896309281 -0.234024401508930
0.322050568460763 0.143558719641492 0.123614436848653
-0.093906030213254 0.211835911546235 0.320772081663922
0.357884219268243 0.398944806480737 0.173822294613566
-0.187427628932806 0.347279365836548 -0.581008382031373
0.065171693781111 -0.199387502072497 0.214625814441513
0.218594455934363 -0.116805697321054 0.041675369656202
0.340931316467447 -0.045940516965052 0.282030671383383
-0.347091094384404 0.094821608664934 0.225146945099652
0.157231748335145 -0.239638278859464 0.418224028645631
-0.015763444302254 0.043726158945641 -0.491981498054555
-0.328491861304042 -0.455424163165660 -0.175176077747401
0.064077548852213 0.211054260133743 0.476942412132077
-0.202597425377719 0.031740523101901 0.784220699678296
0.060540196554665 0.587696547734458 -0.217043440384638
-0.238195819100700 0.072877841210851 -0.214546437576050
-0.044869620390407 -0.021068044772003 -0.714370084432810
-0.072717267086091 0.021767921022381 0.640886592103440
0.501457239721303 -0.139238609393427 -0.414638618663983
-0.125830986670373 0.028320736911165 -0.451735653113142
0.159882903081227 -0.536444495710612 0.106985097542488
-0.100798864154531 -0.539276192857367 0.077762169134101
0.590028060344082 0.104010045269943 -0.379252606209767
0.704946652374602 -0.142698427389901 -0.075794558162324
0.100567937569734 0.441723453993090 -0.266333731482620
0.257702483072212 0.500092001991432 0.007904764924103
-0.001592499918259 -0.195327192507978 -0.433807953274184
-0.206688537952036 0.471464664189468 -0.116368264404985
-0.233559482625656 -0.674345189579622 -0.121663473689556
0.167491096140770 -0.031826285929510 0.414927596825298
0.329581170925972 0.094557169682598 -0.479308947543173
0.114627330925874 0.074084963337188 0.616851154295154
-0.308196325998423 0.459795703159129 0.338454613825068
-0.024443181027867 -0.312670492731165 0.338455862418202
0.215858557870287 0.506863964315155 -0.480795871843509
-0.119858221705617 -0.632132349380884 -0.196326603531203
0.002754177461613 0.604553844112293 0.221790476097868
-0.035948383534962 -0.123060827552072 -0.601280377107508
0.471508528982735 -0.296073537023409 0.257520451851293
0.258421058949031 -0.433430823051172 0.285203613419493
0.277748860367220 0.078747546974279 0.431577867723234
0.270561501467378 -0.672550479699544 0.189739957106237
0.087740842795949 0.053241607942074 0.597183157997614
-0.192093877593734 0.236987141257864 -0.107733831548670
-0.350117403180003 -0.211425965401074 0.331935843981127
-0.062298177264913 -0.230651403520130 -0.425716066018385
-0.378283046028020 0.172413321855335 -0.418108035675348
-0.210544763825320 -0.239227573834295 0.318047054323134
0.463886265441880 -0.153870975836398 0.167295662403067
0.323038793387695 0.474617438289449 -0.231758794352590
0.394833313439564 0.406288811098150 0.259596909400483
-0.135039569776238 0.133655609739396 -0.538879597675229
-0.560105144841647 -0.130892050556932 0.485479663950988
-0.067279782487086 0.681777288859070 0.131609917699291
0.011003297100707 -0.209402339886809 -0.546555570122929
0.176479889281683 -0.035121148209332 -0.490238567557351
-0.072942602946756 -0.210682589838917 -0.207771014302654
